ply
format ascii 1.0
comment synthetic polynomial dataset
element vertex 1182
property float x
property float y
property float z
property uchar red
property uchar green
property uchar blue
end_header
0.627254 -0.286573 0.311324 102 102 102
-0.382766 0.122244 0.131566 102 102 102
0.779559 -0.318637 0.506183 102 102 102
0.675351 0.218437 0.408384 102 102 102
-0.246493 0.659319 -0.373942 102 102 102
0.711423 0.066132 0.501749 102 102 102
-0.122244 0.651303 -0.409251 102 102 102
-0.507014 -0.971944 -0.687612 102 102 102
-0.190381 0.446894 -0.163469 102 102 102
-0.579158 -0.202405 0.294457 102 102 102
0.563126 0.975952 -0.635371 102 102 102
-0.771543 0.543086 0.300336 102 102 102
-0.406814 0.338677 0.050795 102 102 102
-0.086172 0.394790 -0.148433 102 102 102
-0.571142 0.859719 -0.412914 102 102 102
0.615230 0.462926 0.164208 102 102 102
-0.639279 -0.094188 0.399806 102 102 102
-0.258517 0.478958 -0.162570 102 102 102
0.442886 -0.571142 -0.130056 102 102 102
0.102204 -0.971944 -0.934229 102 102 102
-0.787575 -0.827655 -0.064739 102 102 102
-0.070140 0.555110 -0.303228 102 102 102
0.919840 0.615230 0.467597 102 102 102
-0.563126 0.835671 -0.381235 102 102 102
-0.322645 0.843687 -0.607708 102 102 102
-0.523046 -0.118236 0.259597 102 102 102
0.903808 0.983968 -0.151325 102 102 102
-0.478958 0.238477 0.172529 102 102 102
0.062124 0.523046 -0.269718 102 102 102
-0.334669 0.803607 -0.533781 102 102 102
-0.887776 -0.543086 0.493203 102 102 102
-0.022044 0.991984 -0.983546 102 102 102
-0.422846 0.679359 -0.282730 102 102 102
-0.202405 0.855711 -0.691274 102 102 102
0.026052 -0.599198 -0.358360 102 102 102
-0.494990 0.158317 0.219951 102 102 102
-0.923848 -0.310621 0.757009 102 102 102
0.815631 0.767535 0.076144 102 102 102
-0.775551 -0.767535 0.012369 102 102 102
-0.519038 0.943888 -0.621524 102 102 102
0.442886 0.374750 0.055711 102 102 102
-0.963928 0.018036 0.928832 102 102 102
0.354709 -0.623246 -0.262617 102 102 102
0.026052 0.507014 -0.256385 102 102 102
0.098196 -0.775551 -0.591837 102 102 102
-0.579158 0.090180 0.327292 102 102 102
0.106212 -0.751503 -0.553476 102 102 102
0.414830 -0.394790 0.016225 102 102 102
-0.919840 -0.851703 0.120706 102 102 102
0.266533 -0.811623 -0.587692 102 102 102
0.539078 0.298597 0.201445 102 102 102
0.579158 -0.623246 -0.053012 102 102 102
0.226453 0.699399 -0.437878 102 102 102
0.935872 0.679359 0.414328 102 102 102
0.951904 -0.535070 0.619821 102 102 102
-0.815631 0.266533 0.594214 102 102 102
0.503006 0.206413 0.210409 102 102 102
-0.414830 0.230461 0.118971 102 102 102
0.018036 -0.743487 -0.552448 102 102 102
0.262525 0.118236 0.054940 102 102 102
-0.939880 0.210421 0.839097 102 102 102
0.086172 0.166333 -0.020241 102 102 102
0.771543 0.639279 0.186602 102 102 102
0.687375 0.847695 -0.246103 102 102 102
-0.498998 -0.470942 0.027213 102 102 102
0.555110 -0.587174 -0.036626 102 102 102
-0.891784 0.719439 0.277686 102 102 102
0.995992 0.879759 0.218023 102 102 102
-0.935872 0.863727 0.129831 102 102 102
0.110220 0.270541 -0.061044 102 102 102
-0.679359 -0.074148 0.456030 102 102 102
-0.402806 -0.474950 -0.063325 102 102 102
0.058116 0.026052 0.002699 102 102 102
0.270541 0.290581 -0.011245 102 102 102
0.667335 0.138277 0.426215 102 102 102
0.194389 -0.006012 0.037751 102 102 102
-0.290581 -0.374750 -0.056000 102 102 102
-0.438878 -0.154309 0.168803 102 102 102
-0.130261 0.799599 -0.622391 102 102 102
-0.114228 0.787575 -0.607226 102 102 102
0.286573 -0.310621 -0.014361 102 102 102
-0.627254 0.555110 0.085301 102 102 102
0.655311 -0.935872 -0.446424 102 102 102
0.655311 0.030060 0.428528 102 102 102
0.414830 -0.555110 -0.136064 102 102 102
0.519038 -0.214429 0.223421 102 102 102
-0.114228 0.426854 -0.169156 102 102 102
0.827655 0.002004 0.685009 102 102 102
0.803607 0.503006 0.392770 102 102 102
-0.422846 -0.959920 -0.742648 102 102 102
-0.062124 0.883768 -0.777186 102 102 102
0.859719 -0.835671 0.040771 102 102 102
0.218437 0.907816 -0.776415 102 102 102
-0.775551 0.482966 0.368223 102 102 102
0.174349 0.362725 -0.101172 102 102 102
0.422846 0.106212 0.167517 102 102 102
-0.290581 -0.559118 -0.228176 102 102 102
0.823647 0.038076 0.676945 102 102 102
-0.519038 -0.691383 -0.208610 102 102 102
-0.699399 -0.050100 0.486649 102 102 102
-0.867735 0.474950 0.527387 102 102 102
-0.274549 -0.014028 0.075180 102 102 102
0.715431 0.619238 0.128385 102 102 102
0.647295 -0.655311 -0.010442 102 102 102
-0.218437 0.038076 0.046265 102 102 102
-0.102204 0.246493 -0.050313 102 102 102
0.354709 -0.583166 -0.214264 102 102 102
-0.454910 0.659319 -0.227758 102 102 102
-0.687375 -0.803607 -0.173301 102 102 102
0.751503 -0.386774 0.415163 102 102 102
-0.254509 -0.979960 -0.895547 102 102 102
0.771543 -0.234469 0.540303 102 102 102
0.731463 0.138277 0.515918 102 102 102
-0.394790 0.695391 -0.327710 102 102 102
0.346693 0.531062 -0.161831 102 102 102
-0.799599 0.515030 0.374103 102 102 102
-0.238477 0.114228 0.043823 102 102 102
-0.723447 0.883768 -0.257670 102 102 102
0.599198 0.775551 -0.242441 102 102 102
0.258517 -0.835671 -0.631516 102 102 102
-0.683367 -0.010020 0.466890 102 102 102
-0.951904 0.262525 0.837201 102 102 102
0.306613 0.991984 -0.890021 102 102 102
0.583166 0.414830 0.167999 102 102 102
0.895792 -0.735471 0.261525 102 102 102
-0.751503 0.398798 0.405717 102 102 102
0.478958 -0.418838 0.053976 102 102 102
-0.114228 0.258517 -0.053783 102 102 102
-0.703407 -0.130261 0.477813 102 102 102
-0.394790 -0.166333 0.128192 102 102 102
0.314629 0.074148 0.093494 102 102 102
0.543086 0.683367 -0.172047 102 102 102
0.843687 0.855711 -0.020434 102 102 102
-0.755511 -0.358717 0.442119 102 102 102
-0.843687 0.294589 0.625026 102 102 102
0.843687 -0.755511 0.141011 102 102 102
-0.731463 -0.070140 0.530118 102 102 102
-0.282565 0.094188 0.070972 102 102 102
-0.490982 -0.551102 -0.062650 102 102 102
0.567134 0.719439 -0.195951 102 102 102
-0.903808 0.142285 0.796623 102 102 102
0.130261 -0.330661 -0.092369 102 102 102
-0.026052 0.362725 -0.130891 102 102 102
-0.615230 -0.851703 -0.346890 102 102 102
0.979960 -0.995992 -0.031679 102 102 102
0.066132 -0.326653 -0.102329 102 102 102
0.178357 -0.611222 -0.341782 102 102 102
0.671343 -0.334669 0.338697 102 102 102
-0.631263 -0.042084 0.396721 102 102 102
-0.871744 0.278557 0.682343 102 102 102
0.130261 0.907816 -0.807161 102 102 102
0.250501 -0.783567 -0.551227 102 102 102
0.895792 0.118236 0.788463 102 102 102
-0.106212 -0.795591 -0.621684 102 102 102
-0.366733 -0.338677 0.019791 102 102 102
-0.995992 0.559118 0.679387 102 102 102
0.434870 -0.631263 -0.209381 102 102 102
-1.000000 -0.146293 0.978598 102 102 102
0.306613 0.182365 0.060755 102 102 102
-0.659319 -0.438878 0.242087 102 102 102
-0.174349 0.843687 -0.681411 102 102 102
0.827655 0.150301 0.662423 102 102 102
0.382766 0.398798 -0.012530 102 102 102
0.611222 0.903808 -0.443275 102 102 102
0.122244 -0.667335 -0.430392 102 102 102
-0.314629 0.110220 0.086843 102 102 102
-0.322645 -0.783567 -0.509877 102 102 102
0.799599 0.042084 0.637588 102 102 102
-0.338677 -0.851703 -0.610696 102 102 102
0.707415 0.454910 0.293493 102 102 102
0.402806 -0.923848 -0.691242 102 102 102
-0.927856 0.110220 0.848768 102 102 102
-0.286573 -0.815631 -0.583130 102 102 102
0.875751 0.298597 0.677780 102 102 102
-0.038076 0.819639 -0.670359 102 102 102
0.466934 -0.154309 0.194216 102 102 102
-0.511022 0.595190 -0.093108 102 102 102
0.787575 -0.174349 0.589877 102 102 102
0.426854 0.174349 0.151807 102 102 102
0.603206 0.779559 -0.243854 102 102 102
-0.711423 -0.042084 0.504351 102 102 102
0.466934 0.074148 0.212529 102 102 102
-0.919840 -0.322645 0.742005 102 102 102
-0.490982 -0.683367 -0.225927 102 102 102
-0.751503 -0.907816 -0.259372 102 102 102
-0.735471 0.362725 0.409348 102 102 102
0.342685 0.350701 -0.005558 102 102 102
-0.050100 -0.246493 -0.058249 102 102 102
0.647295 -0.791583 -0.207614 102 102 102
-0.442886 0.535070 -0.090152 102 102 102
-0.390782 0.082164 0.145959 102 102 102
-0.002004 -0.166333 -0.027663 102 102 102
0.178357 -0.222445 -0.017671 102 102 102
0.194389 -0.258517 -0.029044 102 102 102
-0.903808 0.398798 0.657829 102 102 102
0.611222 0.963928 -0.555564 102 102 102
-0.883768 -0.983968 -0.187148 102 102 102
-0.346693 0.338677 0.005494 102 102 102
0.410822 0.635271 -0.234794 102 102 102
0.755511 -0.154309 0.546986 102 102 102
0.879759 -0.647295 0.354987 102 102 102
0.907816 -0.695391 0.340561 102 102 102
-0.979960 -0.390782 0.807611 102 102 102
0.567134 -0.979960 -0.638680 102 102 102
-0.731463 0.779559 -0.072674 102 102 102
-0.599198 -0.523046 0.085462 102 102 102
-0.923848 0.583166 0.513412 102 102 102
0.094188 -0.655311 -0.420561 102 102 102
-0.811623 0.947896 -0.239774 102 102 102
-0.466934 0.198397 0.178666 102 102 102
0.238477 -0.466934 -0.161156 102 102 102
-0.186373 -0.070140 0.029815 102 102 102
0.118236 0.603206 -0.349878 102 102 102
0.903808 -0.595190 0.462617 102 102 102
0.198397 0.783567 -0.574616 102 102 102
0.707415 0.166333 0.472769 102 102 102
0.763527 -0.074148 0.577476 102 102 102
0.675351 0.058116 0.452721 102 102 102
0.002004 -0.354709 -0.125815 102 102 102
0.567134 -0.082164 0.314890 102 102 102
-0.587174 0.126253 0.328834 102 102 102
0.270541 -0.775551 -0.528287 102 102 102
0.026052 0.567134 -0.320963 102 102 102
0.979960 -0.030060 0.959418 102 102 102
-0.643287 0.643287 0.000000 102 102 102
-0.162325 0.478958 -0.203051 102 102 102
0.951904 -0.306613 0.812109 102 102 102
-0.346693 0.274549 0.044819 102 102 102
0.543086 0.098196 0.285300 102 102 102
0.042084 0.314629 -0.097220 102 102 102
0.927856 0.266533 0.789876 102 102 102
0.639279 -0.190381 0.372432 102 102 102
0.639279 0.875751 -0.358264 102 102 102
-0.086172 0.178357 -0.024385 102 102 102
-0.146293 0.591182 -0.328095 102 102 102
0.919840 0.278557 0.768511 102 102 102
0.955912 0.086172 0.906342 102 102 102
-1.000000 0.310621 0.903514 102 102 102
-0.414830 -0.146293 0.150682 102 102 102
0.603206 0.807615 -0.288384 102 102 102
0.266533 0.066132 0.066666 102 102 102
-0.066132 -0.547094 -0.294939 102 102 102
0.422846 0.571142 -0.147405 102 102 102
0.214429 0.531062 -0.236047 102 102 102
-0.563126 0.903808 -0.499757 102 102 102
0.402806 0.182365 0.128995 102 102 102
-0.074148 -0.823647 -0.672897 102 102 102
-0.571142 0.450902 0.122891 102 102 102
-0.787575 -0.486974 0.383131 102 102 102
0.246493 0.855711 -0.671483 102 102 102
-0.715431 0.931864 -0.356529 102 102 102
0.194389 0.318637 -0.063743 102 102 102
-0.130261 -0.891784 -0.778310 102 102 102
-0.142285 -0.382766 -0.126265 102 102 102
-0.042084 0.703407 -0.493010 102 102 102
0.230461 -0.030060 0.052209 102 102 102
0.679359 0.963928 -0.467629 102 102 102
0.290581 0.731463 -0.450601 102 102 102
0.767535 -0.623246 0.200674 102 102 102
-0.963928 0.843687 0.217349 102 102 102
-0.535070 0.398798 0.127261 102 102 102
0.695391 -0.975952 -0.468914 102 102 102
0.114228 0.402806 -0.149204 102 102 102
0.262525 -0.230461 0.015807 102 102 102
-0.186373 0.118236 0.020755 102 102 102
0.322645 0.398798 -0.054940 102 102 102
-0.983968 -0.086172 0.960767 102 102 102
0.250501 -0.366733 -0.071743 102 102 102
-0.006012 -0.134269 -0.017992 102 102 102
0.611222 -0.591182 0.024096 102 102 102
0.154309 -0.931864 -0.844559 102 102 102
0.242485 0.390782 -0.093911 102 102 102
-0.631263 -0.022044 0.398006 102 102 102
-0.310621 -0.699399 -0.392673 102 102 102
0.755511 -0.310621 0.474311 102 102 102
-0.278557 -0.531062 -0.204433 102 102 102
0.995992 0.310621 0.895514 102 102 102
0.871744 -0.759519 0.183068 102 102 102
-0.158317 -0.595190 -0.329187 102 102 102
0.242485 -0.458918 -0.151807 102 102 102
0.098196 0.575150 -0.321155 102 102 102
0.895792 0.503006 0.549428 102 102 102
0.747495 0.414830 0.386665 102 102 102
0.346693 -0.951904 -0.785925 102 102 102
0.887776 -0.030060 0.787242 102 102 102
0.971944 -0.911824 0.113253 102 102 102
-0.691383 0.418838 0.302585 102 102 102
0.787575 -0.919840 -0.225830 102 102 102
0.791583 -0.779559 0.018891 102 102 102
0.422846 0.883768 -0.602247 102 102 102
0.639279 0.034068 0.407516 102 102 102
0.286573 -0.743487 -0.470649 102 102 102
-0.178357 -0.827655 -0.653202 102 102 102
-0.210421 0.591182 -0.305220 102 102 102
0.046092 0.390782 -0.150586 102 102 102
-0.563126 -0.130261 0.300143 102 102 102
0.442886 0.703407 -0.298633 102 102 102
0.987976 -0.418838 0.800671 102 102 102
0.162325 -0.507014 -0.230714 102 102 102
0.250501 -0.166333 0.035084 102 102 102
0.218437 0.102204 0.037269 102 102 102
-0.270541 0.450902 -0.130120 102 102 102
0.458918 -0.587174 -0.134168 102 102 102
-0.755511 -0.194389 0.533010 102 102 102
0.795591 0.182365 0.599708 102 102 102
0.442886 0.875751 -0.570793 102 102 102
-0.354709 -0.523046 -0.147758 102 102 102
0.547094 0.775551 -0.302167 102 102 102
-0.759519 -0.719439 0.059277 102 102 102
0.198397 0.583166 -0.300722 102 102 102
-0.314629 -0.066132 0.094618 102 102 102
0.615230 -0.687375 -0.093976 102 102 102
0.555110 0.531062 0.026120 102 102 102
0.735471 -0.843687 -0.170891 102 102 102
0.575150 0.310621 0.234312 102 102 102
-0.675351 -0.995992 -0.535901 102 102 102
0.879759 0.771543 0.178698 102 102 102
-0.987976 0.927856 0.115180 102 102 102
-0.855711 -0.422846 0.553444 102 102 102
-0.054108 0.935872 -0.872928 102 102 102
-0.326653 0.871744 -0.653234 102 102 102
0.655311 0.066132 0.425059 102 102 102
0.138277 -0.927856 -0.841796 102 102 102
-0.358717 0.234469 0.073703 102 102 102
-0.070140 0.871744 -0.755017 102 102 102
-0.595190 -0.018036 0.353926 102 102 102
0.382766 -0.923848 -0.706985 102 102 102
0.258517 -0.579158 -0.268593 102 102 102
-1.000000 -0.755511 0.429203 102 102 102
-0.923848 0.462926 0.639194 102 102 102
0.106212 0.318637 -0.090249 102 102 102
0.046092 0.883768 -0.778921 102 102 102
-0.811623 0.306613 0.564721 102 102 102
0.643287 0.983968 -0.554375 102 102 102
-0.170341 0.182365 -0.004241 102 102 102
0.775551 -0.827655 -0.083534 102 102 102
-0.278557 -0.983968 -0.890599 102 102 102
-0.458918 0.755511 -0.360191 102 102 102
0.631263 0.547094 0.099180 102 102 102
-0.923848 -0.927856 -0.007422 102 102 102
-0.166333 -0.943888 -0.863258 102 102 102
0.551102 -0.927856 -0.557203 102 102 102
0.298597 0.879759 -0.684817 102 102 102
0.807615 -0.158317 0.627178 102 102 102
0.258517 -0.422846 -0.111967 102 102 102
-0.058116 -0.398798 -0.155662 102 102 102
0.014028 -0.338677 -0.114506 102 102 102
-0.995992 0.466934 0.773973 102 102 102
0.703407 0.422846 0.315983 102 102 102
0.306613 0.306613 0.000000 102 102 102
0.122244 0.078156 0.008835 102 102 102
0.691383 0.214429 0.432030 102 102 102
0.783567 0.450902 0.410665 102 102 102
-0.511022 -0.490982 0.020080 102 102 102
0.042084 -0.238477 -0.055100 102 102 102
-0.555110 0.967936 -0.628752 102 102 102
0.931864 0.975952 -0.084112 102 102 102
0.026052 -0.587174 -0.344095 102 102 102
-0.310621 0.066132 0.092112 102 102 102
-0.963928 -0.002004 0.929153 102 102 102
-0.006012 -0.366733 -0.134457 102 102 102
-0.583166 0.771543 -0.255196 102 102 102
0.378758 0.470942 -0.078329 102 102 102
0.306613 -0.166333 0.066345 102 102 102
-0.931864 -0.410822 0.699596 102 102 102
-0.170341 -0.118236 0.015036 102 102 102
0.142285 0.242485 -0.038554 102 102 102
-0.631263 -0.923848 -0.455002 102 102 102
-0.006012 0.170341 -0.028980 102 102 102
-0.967936 -0.114228 0.923852 102 102 102
-0.815631 -0.911824 -0.166168 102 102 102
0.863727 -0.226453 0.694744 102 102 102
-0.543086 -0.643287 -0.118875 102 102 102
0.551102 -1.000000 -0.696286 102 102 102
0.158317 -0.555110 -0.283083 102 102 102
-0.442886 -0.903808 -0.620720 102 102 102
-0.150301 -0.779559 -0.585122 102 102 102
-0.923848 0.831663 0.161831 102 102 102
-0.482966 0.927856 -0.627660 102 102 102
0.943888 0.482966 0.657668 102 102 102
-0.607214 -0.318637 0.267180 102 102 102
0.006012 0.779559 -0.607676 102 102 102
0.414830 0.691383 -0.305926 102 102 102
0.935872 0.827655 0.190843 102 102 102
-0.414830 0.619238 -0.211373 102 102 102
-0.174349 -0.891784 -0.764880 102 102 102
-0.246493 -0.599198 -0.298280 102 102 102
-0.458918 0.691383 -0.267405 102 102 102
-0.462926 0.098196 0.204658 102 102 102
-0.354709 -0.418838 -0.049606 102 102 102
-0.963928 0.422846 0.750358 102 102 102
0.831663 -0.651303 0.267469 102 102 102
-0.466934 0.607214 -0.150682 102 102 102
-0.062124 0.058116 0.000482 102 102 102
0.210421 0.791583 -0.582327 102 102 102
-0.975952 0.883768 0.171437 102 102 102
-0.194389 0.498998 -0.211212 102 102 102
0.070140 0.062124 0.001060 102 102 102
0.490982 -0.026052 0.240385 102 102 102
0.955912 -0.202405 0.872800 102 102 102
-0.947896 0.575150 0.567709 102 102 102
0.943888 -0.294589 0.804141 102 102 102
0.122244 -0.062124 0.011084 102 102 102
-0.759519 -0.126253 0.560929 102 102 102
0.859719 0.847695 0.020530 102 102 102
-0.547094 0.242485 0.240513 102 102 102
-0.703407 0.819639 -0.177027 102 102 102
0.711423 0.102204 0.495677 102 102 102
0.074148 -0.843687 -0.706310 102 102 102
0.579158 -0.158317 0.310360 102 102 102
-0.038076 -0.759519 -0.575419 102 102 102
0.763527 0.358717 0.454295 102 102 102
0.266533 0.006012 0.071004 102 102 102
-0.703407 0.470942 0.272995 102 102 102
-0.991984 0.310621 0.887547 102 102 102
0.130261 -0.154309 -0.006843 102 102 102
-0.699399 0.394790 0.333300 102 102 102
0.118236 -0.879759 -0.759997 102 102 102
0.663327 0.130261 0.423034 102 102 102
0.094188 0.050100 0.006361 102 102 102
0.875751 -0.507014 0.509877 102 102 102
0.659319 -0.298597 0.345541 102 102 102
-0.595190 -0.615230 -0.024257 102 102 102
0.414830 0.450902 -0.031229 102 102 102
-0.627254 0.086172 0.386023 102 102 102
-0.579158 0.995992 -0.656576 102 102 102
-0.675351 0.587174 0.111325 102 102 102
-0.719439 0.142285 0.497347 102 102 102
-0.090180 0.719439 -0.509460 102 102 102
-0.394790 0.062124 0.151999 102 102 102
-0.635271 0.078156 0.397460 102 102 102
-0.070140 0.214429 -0.041060 102 102 102
0.971944 0.515030 0.679419 102 102 102
-0.474950 0.406814 0.060080 102 102 102
-0.442886 0.234469 0.141172 102 102 102
0.050100 0.266533 -0.068530 102 102 102
0.567134 -0.306613 0.227630 102 102 102
-0.118236 -0.967936 -0.922920 102 102 102
-0.943888 -0.659319 0.456223 102 102 102
-0.170341 0.082164 0.022265 102 102 102
0.354709 -0.398798 -0.033221 102 102 102
0.478958 0.350701 0.106409 102 102 102
0.799599 -0.759519 0.062490 102 102 102
-0.078156 0.470942 -0.215678 102 102 102
0.755511 -0.859719 -0.168321 102 102 102
-0.807615 -0.178357 0.620431 102 102 102
0.643287 0.599198 0.054779 102 102 102
-0.094188 -0.050100 0.006361 102 102 102
0.326653 0.975952 -0.845780 102 102 102
-0.527054 0.054108 0.274858 102 102 102
-0.743487 -0.907816 -0.271356 102 102 102
-0.362725 0.887776 -0.656576 102 102 102
0.667335 -0.166333 0.417669 102 102 102
-0.635271 -0.038076 0.402119 102 102 102
0.639279 0.727455 -0.120514 102 102 102
-0.579158 -0.747495 -0.223324 102 102 102
0.599198 -0.362725 0.227469 102 102 102
-0.599198 0.054108 0.356111 102 102 102
0.735471 -0.583166 0.200835 102 102 102
0.458918 -0.943888 -0.680319 102 102 102
-0.390782 -0.791583 -0.473894 102 102 102
-0.787575 0.454910 0.413332 102 102 102
0.306613 0.426854 -0.088192 102 102 102
0.543086 -0.278557 0.217349 102 102 102
0.775551 0.991984 -0.382553 102 102 102
-0.963928 -0.927856 0.068241 102 102 102
-0.775551 0.947896 -0.297027 102 102 102
-0.563126 0.338677 0.202409 102 102 102
0.659319 0.334669 0.322697 102 102 102
0.462926 0.591182 -0.135196 102 102 102
-0.098196 -0.430862 -0.175999 102 102 102
0.679359 -0.731463 -0.073510 102 102 102
-0.282565 -0.066132 0.075470 102 102 102
-0.002004 0.747495 -0.558745 102 102 102
0.519038 0.923848 -0.584094 102 102 102
-0.583166 0.979960 -0.620238 102 102 102
-0.971944 -0.042084 0.942904 102 102 102
0.547094 -0.507014 0.042249 102 102 102
0.282565 0.458918 -0.130763 102 102 102
-0.679359 0.619238 0.078072 102 102 102
-0.843687 -0.711423 0.205686 102 102 102
0.350701 0.747495 -0.435757 102 102 102
-0.703407 0.735471 -0.046136 102 102 102
0.655311 -0.579158 0.094008 102 102 102
-0.170341 -0.575150 -0.301782 102 102 102
0.150301 0.290581 -0.061847 102 102 102
0.579158 0.903808 -0.481444 102 102 102
0.406814 0.082164 0.158746 102 102 102
-0.559118 -0.042084 0.310842 102 102 102
0.515030 0.130261 0.248288 102 102 102
-0.731463 -0.647295 0.116048 102 102 102
0.126253 0.543086 -0.279003 102 102 102
-0.154309 -0.274549 -0.051566 102 102 102
-0.563126 0.154309 0.293300 102 102 102
-0.759519 0.615230 0.198361 102 102 102
-0.454910 0.967936 -0.729957 102 102 102
0.671343 -0.078156 0.444593 102 102 102
0.146293 -0.318637 -0.080128 102 102 102
0.691383 0.743487 -0.074763 102 102 102
0.370741 0.679359 -0.324079 102 102 102
0.018036 0.486974 -0.236818 102 102 102
0.462926 -0.378758 0.070843 102 102 102
-0.086172 0.695391 -0.476143 102 102 102
-0.450902 0.282565 0.123469 102 102 102
-0.823647 -0.555110 0.370248 102 102 102
-0.418838 0.034068 0.174264 102 102 102
0.963928 -0.543086 0.634214 102 102 102
-0.903808 -0.751503 0.252111 102 102 102
-0.743487 -0.991984 -0.431259 102 102 102
-0.979960 -0.418838 0.784896 102 102 102
0.647295 0.110220 0.406842 102 102 102
-0.891784 0.715431 0.283437 102 102 102
0.835671 0.783567 0.084369 102 102 102
0.623246 -0.571142 0.062233 102 102 102
-0.679359 0.563126 0.144417 102 102 102
0.070140 -0.154309 -0.018891 102 102 102
0.338677 0.458918 -0.095903 102 102 102
0.258517 -0.242485 0.008032 102 102 102
0.783567 0.242485 0.555178 102 102 102
0.763527 -0.651303 0.158778 102 102 102
-0.847695 0.146293 0.697186 102 102 102
0.923848 0.190381 0.817250 102 102 102
0.406814 -0.843687 -0.546311 102 102 102
0.138277 0.398798 -0.139919 102 102 102
-0.050100 -0.919840 -0.843595 102 102 102
-0.835671 -0.775551 0.096867 102 102 102
0.002004 -0.042084 -0.001767 102 102 102
0.887776 0.466934 0.570118 102 102 102
-0.130261 0.623246 -0.371468 102 102 102
-0.635271 -0.523046 0.129991 102 102 102
-0.619238 0.503006 0.130441 102 102 102
0.779559 -0.911824 -0.223710 102 102 102
-0.619238 -0.727455 -0.145734 102 102 102
0.190381 0.498998 -0.212754 102 102 102
0.102204 -0.446894 -0.189268 102 102 102
0.675351 -0.238477 0.399227 102 102 102
-0.214429 0.515030 -0.219276 102 102 102
0.843687 0.034068 0.710648 102 102 102
0.078156 0.507014 -0.250955 102 102 102
0.270541 -0.743487 -0.479580 102 102 102
0.418838 -0.715431 -0.336416 102 102 102
0.386774 0.050100 0.147084 102 102 102
0.402806 -0.126253 0.146313 102 102 102
0.430862 -0.819639 -0.486167 102 102 102
0.090180 0.763527 -0.574841 102 102 102
0.226453 0.066132 0.046907 102 102 102
0.486974 -0.410822 0.068369 102 102 102
0.106212 -0.619238 -0.372175 102 102 102
-0.098196 -0.963928 -0.919514 102 102 102
-0.130261 -0.883768 -0.764077 102 102 102
0.486974 0.819639 -0.434665 102 102 102
-0.294589 -0.350701 -0.036209 102 102 102
-0.715431 -0.302605 0.420271 102 102 102
0.406814 0.731463 -0.369541 102 102 102
-0.863727 0.899800 -0.063614 102 102 102
-0.855711 0.426854 0.550038 102 102 102
0.879759 0.250501 0.711226 102 102 102
-0.262525 0.238477 0.012048 102 102 102
0.430862 0.174349 0.155244 102 102 102
0.755511 0.222445 0.521315 102 102 102
0.358717 0.507014 -0.128385 102 102 102
-0.378758 -0.282565 0.063614 102 102 102
0.835671 0.442886 0.502199 102 102 102
0.374750 -0.330661 0.031100 102 102 102
-0.563126 -0.535070 0.030811 102 102 102
0.194389 0.907816 -0.786342 102 102 102
-0.895792 0.018036 0.802117 102 102 102
0.543086 0.294589 0.208160 102 102 102
0.062124 0.975952 -0.948623 102 102 102
-0.366733 -0.306613 0.040482 102 102 102
-0.174349 -0.002004 0.030393 102 102 102
-0.919840 -0.318637 0.744575 102 102 102
0.795591 -0.531062 0.350938 102 102 102
0.390782 0.903808 -0.664158 102 102 102
-0.755511 -0.414830 0.398713 102 102 102
0.651303 0.799599 -0.215164 102 102 102
-0.955912 0.603206 0.549909 102 102 102
-0.559118 0.779559 -0.295099 102 102 102
0.326653 0.350701 -0.016289 102 102 102
-0.270541 -0.631263 -0.325300 102 102 102
-0.050100 0.278557 -0.075084 102 102 102
0.402806 -0.306613 0.068241 102 102 102
-0.310621 -0.158317 0.071421 102 102 102
-0.603206 0.707415 -0.136578 102 102 102
0.911824 -0.511022 0.570279 102 102 102
-0.134269 -0.991984 -0.966004 102 102 102
0.603206 -0.851703 -0.361541 102 102 102
-0.046092 -0.867735 -0.750840 102 102 102
0.515030 -0.194389 0.227469 102 102 102
-0.519038 -0.090180 0.261268 102 102 102
0.855711 0.707415 0.231806 102 102 102
0.250501 0.739479 -0.484078 102 102 102
0.511022 0.543086 -0.033799 102 102 102
0.727455 -0.002004 0.529187 102 102 102
-0.727455 0.034068 0.528030 102 102 102
-0.394790 -0.979960 -0.804463 102 102 102
0.038076 -0.134269 -0.016578 102 102 102
0.162325 0.034068 0.025189 102 102 102
-0.226453 0.078156 0.045173 102 102 102
-0.070140 0.130261 -0.012048 102 102 102
0.122244 -0.575150 -0.315854 102 102 102
-0.094188 -0.559118 -0.303742 102 102 102
0.875751 0.987976 -0.209156 102 102 102
-0.943888 0.402806 0.728672 102 102 102
0.611222 0.410822 0.204818 102 102 102
0.951904 -0.322645 0.802021 102 102 102
-0.711423 0.498998 0.257123 102 102 102
1.000000 -0.551102 0.696286 102 102 102
-0.122244 0.687375 -0.457540 102 102 102
-0.675351 -0.122244 0.441155 102 102 102
-0.903808 0.575150 0.486070 102 102 102
-0.731463 0.006012 0.535002 102 102 102
-0.959920 -0.198397 0.882085 102 102 102
0.482966 -0.226453 0.181975 102 102 102
-0.058116 0.230461 -0.049735 102 102 102
0.418838 -0.438878 -0.017189 102 102 102
-0.214429 0.823647 -0.632415 102 102 102
0.078156 -0.066132 0.001735 102 102 102
0.907816 0.350701 0.701138 102 102 102
-0.046092 -0.370741 -0.135325 102 102 102
0.190381 -0.631263 -0.362248 102 102 102
0.366733 -0.262525 0.065574 102 102 102
0.791583 -0.595190 0.272352 102 102 102
0.895792 -0.783567 0.188465 102 102 102
-0.619238 0.426854 0.201252 102 102 102
-0.819639 -0.695391 0.188240 102 102 102
-0.154309 -0.899800 -0.785828 102 102 102
0.330661 -0.967936 -0.827563 102 102 102
-0.082164 0.114228 -0.006297 102 102 102
-0.759519 -0.587174 0.232095 102 102 102
-0.158317 0.931864 -0.843306 102 102 102
-0.178357 -0.979960 -0.928510 102 102 102
0.543086 0.086172 0.287517 102 102 102
0.162325 -0.775551 -0.575130 102 102 102
1.000000 0.054108 0.997072 102 102 102
-0.466934 0.963928 -0.711130 102 102 102
0.222445 0.875751 -0.717459 102 102 102
0.414830 -0.226453 0.120803 102 102 102
0.587174 0.659319 -0.089927 102 102 102
0.338677 0.847695 -0.603885 102 102 102
-0.258517 0.867735 -0.686134 102 102 102
0.194389 -0.635271 -0.365782 102 102 102
0.827655 -0.078156 0.678905 102 102 102
-0.803607 0.222445 0.596303 102 102 102
0.591182 -0.466934 0.131469 102 102 102
-0.651303 -0.050100 0.421685 102 102 102
0.647295 0.911824 -0.412432 102 102 102
0.887776 -0.955912 -0.125622 102 102 102
0.138277 0.619238 -0.364336 102 102 102
-0.779559 0.486974 0.370569 102 102 102
0.831663 0.811623 0.032932 102 102 102
0.346693 -0.779559 -0.487516 102 102 102
0.394790 0.422846 -0.022940 102 102 102
-0.879759 0.338677 0.659274 102 102 102
0.647295 0.627254 0.025542 102 102 102
-0.659319 -0.130261 0.417733 102 102 102
-0.607214 -0.058116 0.365332 102 102 102
0.939880 0.454910 0.676431 102 102 102
0.883768 -0.503006 0.528030 102 102 102
0.735471 0.983968 -0.427275 102 102 102
0.699399 -0.835671 -0.209188 102 102 102
0.354709 0.559118 -0.186794 102 102 102
0.783567 -0.775551 0.012498 102 102 102
-0.879759 -0.519038 0.504576 102 102 102
-0.887776 0.258517 0.721314 102 102 102
-0.735471 -0.278557 0.463323 102 102 102
-0.046092 0.731463 -0.532914 102 102 102
0.727455 -0.983968 -0.439002 102 102 102
0.486974 -0.414830 0.065060 102 102 102
0.683367 0.911824 -0.364432 102 102 102
-0.675351 -0.783567 -0.157879 102 102 102
0.494990 -0.070140 0.240095 102 102 102
-0.859719 0.851703 0.013719 102 102 102
-0.402806 0.523046 -0.111325 102 102 102
-0.955912 0.711423 0.407645 102 102 102
-0.855711 0.474950 0.506665 102 102 102
-0.382766 0.867735 -0.606455 102 102 102
0.679359 -0.114228 0.448480 102 102 102
0.863727 0.246493 0.685266 102 102 102
0.014028 0.346693 -0.120000 102 102 102
0.442886 -0.995992 -0.795852 102 102 102
-0.747495 0.230461 0.505637 102 102 102
0.983968 0.230461 0.915081 102 102 102
0.771543 -0.214429 0.549299 102 102 102
-0.462926 -0.859719 -0.524817 102 102 102
-0.182365 0.374750 -0.107180 102 102 102
0.482966 0.426854 0.051052 102 102 102
0.478958 -0.162325 0.203051 102 102 102
-0.899800 0.270541 0.736447 102 102 102
0.286573 -0.995992 -0.909876 102 102 102
0.286573 -0.358717 -0.046554 102 102 102
-0.422846 -0.058116 0.175421 102 102 102
-0.074148 -0.250501 -0.057253 102 102 102
-0.306613 0.306613 0.000000 102 102 102
-0.591182 0.214429 0.303517 102 102 102
-0.362725 -0.046092 0.129445 102 102 102
-0.426854 -0.494990 -0.062811 102 102 102
0.498998 0.414830 0.076915 102 102 102
-0.134269 0.891784 -0.777250 102 102 102
-0.847695 -0.879759 -0.055389 102 102 102
0.819639 -0.599198 0.312770 102 102 102
-0.458918 -0.807615 -0.441637 102 102 102
0.851703 -0.278557 0.647805 102 102 102
0.891784 0.775551 0.193798 102 102 102
0.122244 0.254509 -0.049831 102 102 102
-0.963928 -0.727455 0.399966 102 102 102
0.326653 -0.118236 0.092723 102 102 102
-0.675351 -0.987976 -0.519998 102 102 102
-0.158317 0.699399 -0.464095 102 102 102
0.450902 0.783567 -0.410665 102 102 102
0.422846 -0.507014 -0.078265 102 102 102
0.615230 0.551102 0.074795 102 102 102
-0.863727 0.515030 0.480769 102 102 102
0.430862 -0.118236 0.171662 102 102 102
-0.434870 -0.422846 0.010313 102 102 102
-0.807615 -0.254509 0.587467 102 102 102
-0.426854 -0.358717 0.053526 102 102 102
0.430862 -0.250501 0.122891 102 102 102
0.042084 -0.054108 -0.001157 102 102 102
0.418838 -0.214429 0.129445 102 102 102
-0.270541 -0.979960 -0.887129 102 102 102
-0.875751 0.394790 0.611082 102 102 102
0.647295 0.923848 -0.434504 102 102 102
-0.603206 -0.010020 0.363758 102 102 102
0.735471 -0.503006 0.287902 102 102 102
-0.803607 0.967936 -0.291115 102 102 102
0.611222 -0.250501 0.310842 102 102 102
0.354709 -0.130261 0.108851 102 102 102
-0.186373 0.851703 -0.690664 102 102 102
0.667335 0.551102 0.141622 102 102 102
-0.118236 -0.070140 0.009060 102 102 102
0.406814 0.867735 -0.587467 102 102 102
0.639279 -0.382766 0.262168 102 102 102
-0.899800 -0.434870 0.620528 102 102 102
-0.030060 0.330661 -0.108433 102 102 102
0.170341 0.310621 -0.067470 102 102 102
-0.274549 0.619238 -0.308079 102 102 102
-0.655311 -0.002004 0.429428 102 102 102
0.863727 -0.843687 0.034217 102 102 102
0.314629 -0.154309 0.075180 102 102 102
0.647295 0.651303 -0.005205 102 102 102
0.046092 0.511022 -0.259019 102 102 102
0.102204 0.555110 -0.297702 102 102 102
0.599198 0.579158 0.023614 102 102 102
0.731463 -0.230461 0.481926 102 102 102
-0.595190 0.695391 -0.129317 102 102 102
0.671343 0.635271 0.047132 102 102 102
0.346693 0.402806 -0.042056 102 102 102
0.070140 -0.294589 -0.081863 102 102 102
0.547094 0.679359 -0.162216 102 102 102
-0.855711 0.298597 0.643082 102 102 102
0.527054 -0.202405 0.236818 102 102 102
0.775551 0.823647 -0.076915 102 102 102
-0.414830 0.382766 0.025574 102 102 102
-0.567134 0.486974 0.084498 102 102 102
-0.587174 0.418838 0.169349 102 102 102
0.739479 0.731463 0.011791 102 102 102
0.983968 0.110220 0.956044 102 102 102
0.903808 0.066132 0.812495 102 102 102
0.186373 -0.543086 -0.260208 102 102 102
0.314629 -0.687375 -0.373492 102 102 102
-0.707415 0.430862 0.314794 102 102 102
-0.787575 0.334669 0.508271 102 102 102
-0.242485 -0.711423 -0.447324 102 102 102
-0.563126 0.819639 -0.354697 102 102 102
-0.434870 0.943888 -0.701812 102 102 102
0.450902 -0.262525 0.134393 102 102 102
0.174349 0.515030 -0.234858 102 102 102
-0.014028 0.903808 -0.816671 102 102 102
0.963928 -0.182365 0.895900 102 102 102
0.511022 0.458918 0.050538 102 102 102
-0.955912 -0.182365 0.880511 102 102 102
-0.995992 0.791583 0.365396 102 102 102
-0.166333 -0.406814 -0.137831 102 102 102
-0.246493 0.847695 -0.657829 102 102 102
-0.947896 -0.807615 0.246264 102 102 102
-0.951904 0.166333 0.878454 102 102 102
0.751503 -0.903808 -0.252111 102 102 102
-0.166333 0.699399 -0.461492 102 102 102
0.703407 -0.887776 -0.293364 102 102 102
0.715431 -0.002004 0.511837 102 102 102
0.402806 0.931864 -0.706118 102 102 102
-0.390782 0.398798 -0.006329 102 102 102
0.286573 -0.835671 -0.616222 102 102 102
0.118236 0.282565 -0.065863 102 102 102
0.911824 0.915832 -0.007325 102 102 102
-0.639279 0.086172 0.401251 102 102 102
0.098196 0.503006 -0.243373 102 102 102
-0.030060 0.707415 -0.499532 102 102 102
-0.294589 -0.446894 -0.112931 102 102 102
-0.234469 0.779559 -0.552737 102 102 102
-0.835671 -0.599198 0.339308 102 102 102
-0.591182 -0.362725 0.217927 102 102 102
0.523046 -0.410822 0.104803 102 102 102
-0.943888 0.967936 -0.045976 102 102 102
-0.523046 0.462926 0.059277 102 102 102
-0.627254 0.394790 0.237589 102 102 102
-0.454910 -0.767535 -0.382167 102 102 102
-0.987976 0.799599 0.336738 102 102 102
-0.366733 0.386774 -0.015100 102 102 102
0.979960 0.707415 0.459886 102 102 102
-0.679359 -0.318637 0.359999 102 102 102
-0.174349 -0.983968 -0.937795 102 102 102
0.551102 -0.150301 0.281123 102 102 102
-0.294589 -0.883768 -0.694262 102 102 102
0.827655 0.667335 0.239678 102 102 102
-0.871744 0.671343 0.309236 102 102 102
0.907816 -0.551102 0.520416 102 102 102
-0.703407 -0.066132 0.490408 102 102 102
0.647295 0.567134 0.097349 102 102 102
0.266533 0.731463 -0.463998 102 102 102
0.294589 -0.118236 0.072803 102 102 102
-0.523046 -0.991984 -0.710455 102 102 102
0.755511 -0.222445 0.521315 102 102 102
-0.939880 -0.030060 0.882470 102 102 102
-1.000000 -0.675351 0.543901 102 102 102
-0.507014 0.847695 -0.461524 102 102 102
-0.262525 0.446894 -0.130795 102 102 102
0.166333 0.330661 -0.081670 102 102 102
0.478958 -0.899800 -0.580239 102 102 102
-0.254509 -0.374750 -0.075662 102 102 102
0.903808 -0.899800 0.007229 102 102 102
-0.971944 0.282565 0.864832 102 102 102
-0.362725 0.138277 0.112449 102 102 102
-0.511022 -0.226453 0.209863 102 102 102
0.414830 -0.931864 -0.696286 102 102 102
0.543086 0.995992 -0.697057 102 102 102
0.699399 0.639279 0.080482 102 102 102
-0.515030 -0.410822 0.096482 102 102 102
-0.643287 -0.082164 0.407067 102 102 102
-0.751503 0.430862 0.379115 102 102 102
-0.719439 -0.795591 -0.115373 102 102 102
-0.486974 -0.194389 0.199357 102 102 102
-0.198397 -0.807615 -0.612881 102 102 102
-0.991984 -0.114228 0.970984 102 102 102
0.306613 0.178357 0.062201 102 102 102
-0.106212 -0.867735 -0.741684 102 102 102
-0.422846 -0.062124 0.174939 102 102 102
-0.783567 -0.334669 0.501974 102 102 102
-0.474950 -0.671343 -0.225124 102 102 102
-0.394790 0.599198 -0.203180 102 102 102
0.559118 -0.214429 0.266633 102 102 102
-0.310621 0.042084 0.094714 102 102 102
0.130261 0.679359 -0.444560 102 102 102
0.875751 -0.991984 -0.217092 102 102 102
-0.903808 0.919840 -0.029237 102 102 102
0.190381 -0.354709 -0.089574 102 102 102
0.575150 -0.507014 0.073735 102 102 102
0.126253 0.110220 0.003791 102 102 102
0.815631 0.687375 0.192770 102 102 102
0.807615 -0.563126 0.335131 102 102 102
-0.667335 -0.631263 0.046843 102 102 102
0.050100 0.370741 -0.134939 102 102 102
0.675351 0.883768 -0.324946 102 102 102
0.326653 -0.803607 -0.539082 102 102 102
0.555110 -0.178357 0.276336 102 102 102
-0.394790 0.170341 0.126843 102 102 102
-0.494990 -0.607214 -0.123694 102 102 102
0.354709 0.975952 -0.826663 102 102 102
-0.811623 0.587174 0.313959 102 102 102
-0.258517 0.026052 0.066152 102 102 102
-0.462926 -0.795591 -0.418665 102 102 102
0.739479 -0.539078 0.256224 102 102 102
0.715431 0.142285 0.491596 102 102 102
-0.863727 -0.631263 0.347533 102 102 102
0.198397 -0.294589 -0.047421 102 102 102
0.338677 0.342685 -0.002731 102 102 102
-0.018036 0.747495 -0.558423 102 102 102
0.831663 -0.226453 0.640383 102 102 102
0.042084 0.198397 -0.037590 102 102 102
0.066132 -0.266533 -0.066666 102 102 102
-0.126253 0.414830 -0.156144 102 102 102
0.026052 0.659319 -0.434022 102 102 102
0.138277 -0.599198 -0.339918 102 102 102
0.366733 0.595190 -0.219758 102 102 102
0.663327 0.543086 0.145060 102 102 102
0.623246 0.370741 0.250987 102 102 102
-0.547094 0.907816 -0.524817 102 102 102
-0.478958 0.771543 -0.365878 102 102 102
0.038076 -0.026052 0.000771 102 102 102
-0.078156 -0.366733 -0.128385 102 102 102
0.783567 0.867735 -0.138987 102 102 102
-0.158317 -0.286573 -0.057060 102 102 102
-0.923848 -0.527054 0.575709 102 102 102
0.330661 0.687375 -0.363147 102 102 102
-0.535070 -0.218437 0.238585 102 102 102
-0.855711 -0.687375 0.259758 102 102 102
0.110220 -0.599198 -0.346890 102 102 102
-0.627254 0.907816 -0.430681 102 102 102
0.551102 -0.382766 0.157204 102 102 102
0.402806 0.527054 -0.115534 102 102 102
0.254509 0.174349 0.034377 102 102 102
0.106212 0.454910 -0.195662 102 102 102
0.559118 0.895792 -0.489829 102 102 102
-1.000000 0.527054 0.722214 102 102 102
-0.466934 -0.474950 -0.007550 102 102 102
0.058116 0.715431 -0.508464 102 102 102
-0.418838 0.823647 -0.502970 102 102 102
0.462926 -0.599198 -0.144738 102 102 102
-0.186373 0.935872 -0.841121 102 102 102
0.170341 -0.322645 -0.075084 102 102 102
-0.454910 0.747495 -0.351806 102 102 102
-0.086172 -0.298597 -0.081735 102 102 102
0.607214 0.214429 0.322730 102 102 102
0.486974 0.358717 0.108465 102 102 102
-0.202405 0.242485 -0.017831 102 102 102
0.751503 0.330661 0.455420 102 102 102
0.094188 -0.559118 -0.303742 102 102 102
-0.074148 -0.815631 -0.659756 102 102 102
0.278557 -0.511022 -0.183549 102 102 102
-0.218437 0.026052 0.047036 102 102 102
-0.871744 -0.931864 -0.108433 102 102 102
0.703407 0.635271 0.091212 102 102 102
-0.370741 -0.098196 0.127807 102 102 102
-0.406814 0.911824 -0.665925 102 102 102
0.026052 0.503006 -0.252336 102 102 102
-0.511022 -0.839679 -0.443918 102 102 102
-0.342685 0.118236 0.103453 102 102 102
-0.310621 -0.314629 -0.002506 102 102 102
0.282565 -0.779559 -0.527869 102 102 102
0.619238 0.647295 -0.035534 102 102 102
-0.687375 -0.122244 0.457540 102 102 102
0.190381 0.094188 0.027373 102 102 102
-0.951904 0.811623 0.247389 102 102 102
0.603206 -0.947896 -0.534648 102 102 102
0.807615 0.535070 0.365942 102 102 102
0.130261 -0.286573 -0.065156 102 102 102
-0.895792 -0.967936 -0.134457 102 102 102
0.102204 0.855711 -0.721796 102 102 102
0.326653 0.611222 -0.266890 102 102 102
0.567134 0.270541 0.248449 102 102 102
0.098196 -0.643287 -0.404175 102 102 102
-0.571142 0.731463 -0.208834 102 102 102
0.218437 -0.030060 0.046811 102 102 102
-0.643287 0.358717 0.285139 102 102 102
-0.106212 -0.519038 -0.258119 102 102 102
-0.723447 0.422846 0.344577 102 102 102
0.054108 0.967936 -0.933972 102 102 102
-0.535070 -0.194389 0.248513 102 102 102
0.511022 0.074148 0.255646 102 102 102
-0.378758 0.190381 0.107212 102 102 102
0.422846 0.114228 0.165750 102 102 102
-0.691383 0.222445 0.428528 102 102 102
0.186373 0.098196 0.025092 102 102 102
-0.062124 0.234469 -0.051116 102 102 102
0.939880 0.599198 0.524335 102 102 102
-0.859719 -1.000000 -0.260882 102 102 102
0.899800 -0.707415 0.309204 102 102 102
0.038076 -0.863727 -0.744575 102 102 102
-0.402806 -0.919840 -0.683853 102 102 102
0.871744 0.639279 0.351260 102 102 102
-0.198397 0.715431 -0.472480 102 102 102
-0.775551 0.294589 0.514697 102 102 102
0.098196 -0.627254 -0.383806 102 102 102
-0.743487 0.158317 0.527709 102 102 102
0.350701 -0.787575 -0.497283 102 102 102
0.759519 0.891784 -0.218409 102 102 102
0.679359 -0.462926 0.247228 102 102 102
-0.927856 0.282565 0.781073 102 102 102
0.254509 0.523046 -0.208802 102 102 102
0.595190 0.062124 0.350392 102 102 102
0.951904 0.158317 0.881057 102 102 102
-0.110220 0.286573 -0.069976 102 102 102
-0.519038 0.571142 -0.056803 102 102 102
0.639279 -0.294589 0.321894 102 102 102
-0.062124 0.611222 -0.369733 102 102 102
-0.595190 -0.046092 0.352127 102 102 102
-0.735471 -0.859719 -0.198200 102 102 102
-0.430862 0.322645 0.081542 102 102 102
-0.787575 0.170341 0.591259 102 102 102
-0.523046 0.547094 -0.025735 102 102 102
0.791583 0.186373 0.591869 102 102 102
0.082164 0.631263 -0.391741 102 102 102
0.374750 -0.138277 0.121317 102 102 102
-0.991984 -0.767535 0.394922 102 102 102
-0.587174 0.498998 0.095775 102 102 102
0.138277 0.967936 -0.917779 102 102 102
0.422846 -0.971944 -0.765876 102 102 102
0.366733 0.751503 -0.430263 102 102 102
-0.547094 0.927856 -0.561604 102 102 102
-0.090180 -0.511022 -0.253011 102 102 102
-0.186373 -0.631263 -0.363758 102 102 102
0.162325 0.446894 -0.173365 102 102 102
0.719439 -0.835671 -0.180754 102 102 102
0.627254 -0.370741 0.255999 102 102 102
0.871744 -0.907816 -0.064193 102 102 102
-0.635271 -0.082164 0.396818 102 102 102
0.691383 -0.739479 -0.068819 102 102 102
-0.286573 -0.498998 -0.166875 102 102 102
0.066132 -0.679359 -0.457155 102 102 102
0.354709 -0.286573 0.043695 102 102 102
0.350701 -0.795591 -0.509974 102 102 102
-0.751503 0.134269 0.546729 102 102 102
0.579158 -0.531062 0.053397 102 102 102
-0.867735 0.138277 0.733844 102 102 102
-0.507014 -0.779559 -0.350649 102 102 102
-0.382766 -0.470942 -0.075277 102 102 102
-0.058116 0.294589 -0.083405 102 102 102
-0.350701 -0.695391 -0.360577 102 102 102
-0.855711 0.727455 0.203051 102 102 102
0.430862 0.767535 -0.403468 102 102 102
-0.587174 0.066132 0.340400 102 102 102
-0.358717 -0.775551 -0.472801 102 102 102
-0.767535 0.599198 0.230071 102 102 102
0.939880 0.639279 0.474697 102 102 102
0.895792 0.330661 0.693106 102 102 102
0.779559 0.747495 0.048964 102 102 102
0.278557 0.579158 -0.257830 102 102 102
-0.018036 0.879759 -0.773652 102 102 102
-0.535070 -0.979960 -0.674021 102 102 102
0.458918 -0.114228 0.197557 102 102 102
0.867735 -0.258517 0.686134 102 102 102
-0.995992 0.006012 0.991964 102 102 102
-0.551102 -0.430862 0.118072 102 102 102
0.623246 -0.234469 0.333461 102 102 102
-0.991984 0.563126 0.666921 102 102 102
-0.462926 0.919840 -0.631805 102 102 102
0.162325 -0.290581 -0.058088 102 102 102
0.763527 0.198397 0.543612 102 102 102
0.951904 0.655311 0.476689 102 102 102
0.226453 0.907816 -0.772848 102 102 102
0.683367 -0.474950 0.241413 102 102 102
-0.943888 0.847695 0.172337 102 102 102
0.703407 -0.643287 0.080964 102 102 102
-0.106212 0.887776 -0.776864 102 102 102
-0.454910 -0.406814 0.041446 102 102 102
0.050100 0.062124 -0.001349 102 102 102
0.955912 -0.543086 0.618825 102 102 102
0.839679 -0.563126 0.387950 102 102 102
-0.575150 -0.378758 0.187341 102 102 102
-0.543086 0.735471 -0.245975 102 102 102
0.454910 -0.402806 0.044691 102 102 102
0.198397 -0.543086 -0.255581 102 102 102
0.643287 -0.230461 0.360705 102 102 102
0.575150 -0.515030 0.065542 102 102 102
-0.971944 0.254509 0.879900 102 102 102
0.679359 0.531062 0.179501 102 102 102
-0.330661 -0.679359 -0.352191 102 102 102
-0.326653 0.106212 0.095421 102 102 102
-0.438878 0.138277 0.173493 102 102 102
0.406814 -0.014028 0.165301 102 102 102
-0.002004 -1.000000 -0.999996 102 102 102
0.450902 0.691383 -0.274698 102 102 102
0.270541 -0.134269 0.055164 102 102 102
-0.170341 0.434870 -0.160096 102 102 102
0.979960 0.739479 0.413492 102 102 102
0.651303 0.939880 -0.459179 102 102 102
-0.170341 -0.895792 -0.773427 102 102 102
0.751503 0.498998 0.315758 102 102 102
0.963928 0.370741 0.791708 102 102 102
0.731463 -0.338677 0.420336 102 102 102
-0.627254 -0.635271 -0.010120 102 102 102
0.226453 0.891784 -0.743997 102 102 102
0.106212 0.655311 -0.418151 102 102 102
-0.531062 0.238477 0.225156 102 102 102
-0.611222 -0.659319 -0.061108 102 102 102
-0.575150 0.907816 -0.493331 102 102 102
0.422846 -0.515030 -0.086457 102 102 102
0.787575 0.106212 0.608994 102 102 102
-0.967936 -0.278557 0.859306 102 102 102
0.787575 0.683367 0.153285 102 102 102
-0.402806 -0.478958 -0.067148 102 102 102
0.659319 0.418838 0.259276 102 102 102
-0.366733 0.190381 0.098249 102 102 102
-0.326653 0.066132 0.102329 102 102 102
0.831663 -0.891784 -0.103614 102 102 102
0.190381 0.703407 -0.458536 102 102 102
0.074148 -0.547094 -0.293814 102 102 102
0.266533 0.931864 -0.797330 102 102 102
0.827655 0.591182 0.335517 102 102 102
0.871744 -0.474950 0.534359 102 102 102
-1.000000 0.767535 0.410890 102 102 102
-0.867735 -0.835671 0.054618 102 102 102
-0.086172 0.002004 0.007422 102 102 102
-0.827655 -0.971944 -0.259662 102 102 102
-0.831663 -0.286573 0.609540 102 102 102
-0.070140 0.178357 -0.026891 102 102 102
-0.663327 -0.607214 0.071293 102 102 102
-0.442886 -0.454910 -0.010795 102 102 102
-0.250501 0.382766 -0.083759 102 102 102
-0.146293 -0.394790 -0.134457 102 102 102
-0.410822 0.771543 -0.426504 102 102 102
-0.282565 -0.434870 -0.109269 102 102 102
0.643287 0.398798 0.254778 102 102 102
0.202405 0.058116 0.037590 102 102 102
-0.671343 0.078156 0.444593 102 102 102
-0.214429 0.410822 -0.122795 102 102 102
0.258517 -0.739479 -0.479998 102 102 102
0.799599 -0.082164 0.632608 102 102 102
0.883768 0.595190 0.426793 102 102 102
-0.763527 0.567134 0.261332 102 102 102
-0.739479 -0.222445 0.497347 102 102 102
-0.294589 1.000000 -0.913217 102 102 102
0.943888 -0.847695 0.172337 102 102 102
0.883768 0.470942 0.559259 102 102 102
0.783567 0.755511 0.043181 102 102 102
0.595190 0.022044 0.353766 102 102 102
0.527054 0.683367 -0.189204 102 102 102
0.891784 -0.442886 0.599130 102 102 102
-0.935872 0.991984 -0.108176 102 102 102
-0.258517 0.242485 0.008032 102 102 102
-0.639279 -0.779559 -0.199035 102 102 102
-0.098196 -0.378758 -0.133815 102 102 102
-0.470942 0.991984 -0.762246 102 102 102
0.318637 0.543086 -0.193413 102 102 102
-0.090180 -0.234469 -0.046843 102 102 102
-0.046092 -0.058116 -0.001253 102 102 102
0.863727 -0.547094 0.446713 102 102 102
0.242485 0.603206 -0.305059 102 102 102
0.282565 -0.907816 -0.744286 102 102 102
-0.863727 -0.755511 0.175228 102 102 102
-0.494990 -0.823647 -0.433380 102 102 102
-0.486974 -0.943888 -0.653781 102 102 102
-0.899800 0.611222 0.436046 102 102 102
0.286573 0.715431 -0.429717 102 102 102
-0.186373 0.478958 -0.194666 102 102 102
-0.174349 -0.382766 -0.116112 102 102 102
0.074148 -0.675351 -0.450601 102 102 102
0.166333 0.254509 -0.037108 102 102 102
0.254509 -0.138277 0.045654 102 102 102
-0.703407 0.931864 -0.373589 102 102 102
0.687375 -0.470942 0.250698 102 102 102
0.719439 1.000000 -0.482408 102 102 102
0.571142 0.346693 0.206007 102 102 102
-0.995992 -0.691383 0.513990 102 102 102
0.366733 -0.931864 -0.733877 102 102 102
-0.414830 0.398798 0.013044 102 102 102
-0.511022 -0.006012 0.261107 102 102 102
-0.755511 0.791583 -0.055807 102 102 102
-0.507014 -0.711423 -0.249059 102 102 102
-0.426854 -0.983968 -0.785989 102 102 102
0.158317 0.671343 -0.425637 102 102 102
-0.787575 0.851703 -0.105124 102 102 102
0.010020 0.663327 -0.439902 102 102 102
-0.867735 -0.290581 0.668527 102 102 102
-0.559118 -0.054108 0.309685 102 102 102
0.362725 -0.066132 0.127196 102 102 102
-0.683367 0.959920 -0.454456 102 102 102
-0.503006 0.987976 -0.723081 102 102 102
-0.707415 -0.014028 0.500239 102 102 102
-0.098196 0.246493 -0.051116 102 102 102
0.823647 0.647295 0.259405 102 102 102
-0.731463 0.695391 0.051470 102 102 102
-0.863727 -0.166333 0.718359 102 102 102
0.322645 0.523046 -0.169477 102 102 102
0.555110 0.202405 0.267180 102 102 102
-0.494990 0.178357 0.213204 102 102 102
0.987976 0.230461 0.922984 102 102 102
-0.222445 -0.146293 0.028080 102 102 102
0.298597 0.218437 0.041446 102 102 102
-0.855711 -0.454910 0.525299 102 102 102
0.967936 -0.386774 0.787306 102 102 102
-0.871744 0.206413 0.717330 102 102 102
0.406814 0.695391 -0.318071 102 102 102
-0.358717 -0.310621 0.032193 102 102 102
-0.615230 -0.703407 -0.116273 102 102 102
-0.374750 0.066132 0.136064 102 102 102
-0.707415 0.907816 -0.323693 102 102 102
-0.595190 0.454910 0.147309 102 102 102
0.298597 -0.214429 0.043181 102 102 102
0.414830 0.046092 0.169959 102 102 102
-0.975952 0.190381 0.916237 102 102 102
0.362725 -0.683367 -0.335420 102 102 102
-0.539078 0.971944 -0.654070 102 102 102
0.302605 -0.815631 -0.573684 102 102 102
-0.338677 0.815631 -0.550552 102 102 102
0.903808 0.138277 0.797748 102 102 102
-0.402806 0.807615 -0.489990 102 102 102
-0.687375 0.062124 0.468625 102 102 102
-0.186373 0.154309 0.010924 102 102 102
0.218437 -0.090180 0.039582 102 102 102
0.158317 0.386774 -0.124530 102 102 102
0.410822 -0.751503 -0.395982 102 102 102
-0.142285 0.559118 -0.292368 102 102 102
-0.350701 -0.406814 -0.042506 102 102 102
-0.683367 -0.202405 0.426022 102 102 102
-0.995992 -0.046092 0.989876 102 102 102
0.162325 0.555110 -0.281798 102 102 102
0.114228 0.991984 -0.970984 102 102 102
0.763527 0.106212 0.571692 102 102 102
-0.855711 -0.639279 0.323565 102 102 102
-0.294589 0.627254 -0.306665 102 102 102
