# 3D point list with one line of data per point:
#   POINT3D_ID, X, Y, Z, R, G, B, ERROR
4206 0.046092 -0.342685 -0.115309 102 102 102 1.0
4207 0.058116 -0.835671 -0.694969 102 102 102 1.0
4208 -0.515030 -0.294589 0.178473 102 102 102 1.0
4209 0.827655 -0.791583 0.058409 102 102 102 1.0
4210 0.274549 -0.466934 -0.142650 102 102 102 1.0
4211 -0.266533 0.294589 -0.015743 102 102 102 1.0
4212 0.438878 0.939880 -0.690760 102 102 102 1.0
4213 -0.166333 -0.210421 -0.016610 102 102 102 1.0
4214 -0.859719 -0.294589 0.652335 102 102 102 1.0
4215 -0.919840 0.146293 0.824704 102 102 102 1.0
4216 0.963928 -0.118236 0.915177 102 102 102 1.0
4217 0.350701 0.739479 -0.423838 102 102 102 1.0
4218 -0.639279 0.591182 0.059180 102 102 102 1.0
4219 -0.987976 0.843687 0.264288 102 102 102 1.0
4220 0.671343 0.847695 -0.267886 102 102 102 1.0
4221 0.358717 -0.414830 -0.043405 102 102 102 1.0
4222 -0.198397 0.551102 -0.264352 102 102 102 1.0
4223 0.779559 -0.595190 0.253461 102 102 102 1.0
4224 0.703407 -0.130261 0.477813 102 102 102 1.0
4225 -0.450902 -0.290581 0.118875 102 102 102 1.0
4226 0.635271 0.719439 -0.114024 102 102 102 1.0
4227 0.010020 0.322645 -0.104000 102 102 102 1.0
4228 -0.667335 0.034068 0.444175 102 102 102 1.0
4229 -0.286573 -0.222445 0.032642 102 102 102 1.0
4230 0.675351 0.863727 -0.289927 102 102 102 1.0
4231 -0.082164 -0.807615 -0.645491 102 102 102 1.0
4232 0.987976 -0.623246 0.587660 102 102 102 1.0
4233 0.070140 -0.250501 -0.057831 102 102 102 1.0
4234 0.891784 -0.863727 0.049253 102 102 102 1.0
4235 0.515030 -0.118236 0.251276 102 102 102 1.0
4236 0.254509 -0.398798 -0.094265 102 102 102 1.0
4237 -0.871744 0.731463 0.224899 102 102 102 1.0
4238 0.310621 -0.450902 -0.106827 102 102 102 1.0
4239 0.795591 -0.278557 0.555371 102 102 102 1.0
4240 0.923848 -0.783567 0.239517 102 102 102 1.0
4241 -0.959920 -0.591182 0.571949 102 102 102 1.0
4242 -0.474950 0.002004 0.225573 102 102 102 1.0
4243 0.843687 0.414830 0.539725 102 102 102 1.0
4244 -0.466934 0.490982 -0.023036 102 102 102 1.0
4245 -0.959920 0.903808 0.104578 102 102 102 1.0
4246 -0.983968 0.919840 0.122088 102 102 102 1.0
4247 -0.799599 0.967936 -0.297541 102 102 102 1.0
4248 0.130261 0.074148 0.011470 102 102 102 1.0
4249 0.142285 -0.835671 -0.678102 102 102 102 1.0
4250 0.755511 0.498998 0.321798 102 102 102 1.0
4251 -0.959920 -0.839679 0.216385 102 102 102 1.0
4252 0.735471 -0.454910 0.333975 102 102 102 1.0
4253 0.967936 0.426854 0.754696 102 102 102 1.0
4254 -0.406814 -0.583166 -0.174586 102 102 102 1.0
4255 0.162325 -0.046092 0.024225 102 102 102 1.0
4256 -0.030060 -0.903808 -0.815965 102 102 102 1.0
4257 -0.991984 0.659319 0.549331 102 102 102 1.0
4258 0.346693 -0.102204 0.109751 102 102 102 1.0
4259 -0.174349 0.262525 -0.038522 102 102 102 1.0
4260 0.847695 -0.903808 -0.098281 102 102 102 1.0
4261 0.511022 0.218437 0.213429 102 102 102 1.0
4262 -0.270541 -0.166333 0.045526 102 102 102 1.0
4263 0.498998 0.651303 -0.175196 102 102 102 1.0
4264 0.887776 0.066132 0.783772 102 102 102 1.0
4265 0.851703 -0.490982 0.484335 102 102 102 1.0
4266 -0.531062 -0.362725 0.150457 102 102 102 1.0
4267 -0.122244 -0.951904 -0.891177 102 102 102 1.0
4268 -0.871744 -0.470942 0.538150 102 102 102 1.0
4269 0.334669 0.114228 0.098955 102 102 102 1.0
4270 0.571142 -0.503006 0.073188 102 102 102 1.0
4271 0.458918 -0.330661 0.101269 102 102 102 1.0
4272 1.000000 -0.086172 0.992574 102 102 102 1.0
4273 0.899800 0.298597 0.720479 102 102 102 1.0
4274 -0.274549 -0.823647 -0.603018 102 102 102 1.0
4275 0.695391 0.675351 0.027470 102 102 102 1.0
4276 -0.835671 -0.058116 0.694969 102 102 102 1.0
4277 -0.955912 0.078156 0.907659 102 102 102 1.0
4278 -0.927856 0.539078 0.570311 102 102 102 1.0
4279 0.086172 -0.791583 -0.619178 102 102 102 1.0
4280 -0.382766 0.555110 -0.161638 102 102 102 1.0
4281 0.490982 -0.434870 0.051952 102 102 102 1.0
4282 -0.603206 0.823647 -0.314537 102 102 102 1.0
4283 -0.430862 0.342685 0.068209 102 102 102 1.0
4284 0.098196 -0.847695 -0.708945 102 102 102 1.0
4285 -0.426854 -0.014028 0.182007 102 102 102 1.0
4286 -0.490982 1.000000 -0.758937 102 102 102 1.0
4287 0.771543 -0.703407 0.100498 102 102 102 1.0
4288 -0.727455 -0.250501 0.466440 102 102 102 1.0
4289 0.142285 -0.647295 -0.398745 102 102 102 1.0
4290 -0.058116 -0.755511 -0.567419 102 102 102 1.0
4291 -0.306613 -0.763527 -0.488962 102 102 102 1.0
4292 0.082164 0.503006 -0.246264 102 102 102 1.0
4293 0.731463 -0.927856 -0.325878 102 102 102 1.0
4294 0.422846 0.042084 0.177027 102 102 102 1.0
4295 -0.867735 0.595190 0.398713 102 102 102 1.0
4296 -0.354709 -0.991984 -0.858213 102 102 102 1.0
4297 0.919840 -0.591182 0.496608 102 102 102 1.0
4298 -0.943888 0.418838 0.715499 102 102 102 1.0
4299 -0.174349 0.651303 -0.393798 102 102 102 1.0
4300 -0.430862 -0.771543 -0.409637 102 102 102 1.0
4301 0.563126 0.683367 -0.149879 102 102 102 1.0
4302 -0.322645 -0.430862 -0.081542 102 102 102 1.0
4303 -0.442886 -0.290581 0.111710 102 102 102 1.0
4304 1.000000 0.498998 0.751001 102 102 102 1.0
4305 0.583166 -0.775551 -0.261397 102 102 102 1.0
4306 0.615230 -0.498998 0.129510 102 102 102 1.0
4307 -0.218437 -0.631263 -0.350778 102 102 102 1.0
4308 0.334669 -0.963928 -0.817153 102 102 102 1.0
4309 -0.895792 -0.450902 0.599130 102 102 102 1.0
4310 -0.482966 -0.038076 0.231806 102 102 102 1.0
4311 -0.635271 0.262525 0.334649 102 102 102 1.0
4312 0.779559 -0.470942 0.385926 102 102 102 1.0
4313 0.362725 0.310621 0.035084 102 102 102 1.0
4314 -0.454910 0.519038 -0.062458 102 102 102 1.0
4315 -0.891784 0.382766 0.648768 102 102 102 1.0
4316 0.703407 0.875751 -0.272160 102 102 102 1.0
4317 -0.647295 -0.867735 -0.333975 102 102 102 1.0
4318 -0.474950 0.146293 0.204176 102 102 102 1.0
4319 0.555110 0.158317 0.283083 102 102 102 1.0
4320 0.010020 0.250501 -0.062650 102 102 102 1.0
4321 0.186373 -0.214429 -0.011245 102 102 102 1.0
4322 -0.154309 -0.907816 -0.800318 102 102 102 1.0
4323 0.835671 0.390782 0.545636 102 102 102 1.0
4324 -0.507014 -0.130261 0.240095 102 102 102 1.0
4325 -0.915832 0.030060 0.837844 102 102 102 1.0
4326 0.002004 -0.959920 -0.921442 102 102 102 1.0
4327 -0.803607 -0.531062 0.363758 102 102 102 1.0
4328 0.190381 -0.783567 -0.577733 102 102 102 1.0
4329 0.591182 -0.675351 -0.106602 102 102 102 1.0
4330 0.202405 0.587174 -0.303806 102 102 102 1.0
4331 -0.106212 -0.811623 -0.647451 102 102 102 1.0
4332 -0.142285 0.142285 0.000000 102 102 102 1.0
4333 -0.278557 0.983968 -0.890599 102 102 102 1.0
4334 -0.094188 0.771543 -0.586407 102 102 102 1.0
4335 0.182365 0.014028 0.033060 102 102 102 1.0
4336 -0.254509 0.086172 0.057349 102 102 102 1.0
4337 -0.655311 0.222445 0.379950 102 102 102 1.0
4338 -0.054108 0.675351 -0.453171 102 102 102 1.0
4339 -0.182365 0.110220 0.021108 102 102 102 1.0
4340 0.651303 0.743487 -0.128578 102 102 102 1.0
4341 -0.278557 0.915832 -0.761154 102 102 102 1.0
4342 0.474950 -0.603206 -0.138281 102 102 102 1.0
4343 0.939880 0.218437 0.835659 102 102 102 1.0
4344 -0.070140 -0.687375 -0.467564 102 102 102 1.0
4345 -0.366733 -0.362725 0.002924 102 102 102 1.0
4346 0.947896 -0.182365 0.865250 102 102 102 1.0
4347 0.354709 -0.086172 0.118393 102 102 102 1.0
4348 0.262525 -0.903808 -0.747949 102 102 102 1.0
4349 0.498998 0.839679 -0.456062 102 102 102 1.0
4350 -0.458918 0.350701 0.087614 102 102 102 1.0
4351 0.450902 0.450902 0.000000 102 102 102 1.0
4352 0.727455 0.110220 0.517042 102 102 102 1.0
4353 0.430862 -0.378758 0.042185 102 102 102 1.0
4354 0.446894 0.819639 -0.472094 102 102 102 1.0
4355 0.663327 0.022044 0.439516 102 102 102 1.0
4356 0.827655 -0.458918 0.474408 102 102 102 1.0
4357 -0.647295 -0.803607 -0.226794 102 102 102 1.0
4358 0.555110 0.438878 0.115534 102 102 102 1.0
4359 -0.290581 0.527054 -0.193349 102 102 102 1.0
4360 0.707415 0.098196 0.490793 102 102 102 1.0
4361 0.094188 0.715431 -0.502970 102 102 102 1.0
4362 -0.194389 0.218437 -0.009928 102 102 102 1.0
4363 -0.430862 0.390782 0.032932 102 102 102 1.0
4364 -0.695391 0.603206 0.119710 102 102 102 1.0
4365 0.442886 -0.911824 -0.635275 102 102 102 1.0
4366 0.494990 0.891784 -0.550263 102 102 102 1.0
4367 -0.434870 0.014028 0.188915 102 102 102 1.0
4368 -0.006012 0.038076 -0.001414 102 102 102 1.0
4369 0.362725 -0.290581 0.047132 102 102 102 1.0
4370 -0.402806 -0.234469 0.107277 102 102 102 1.0
4371 0.134269 -0.198397 -0.021333 102 102 102 1.0
4372 0.146293 -0.070140 0.016482 102 102 102 1.0
4373 -0.474950 0.006012 0.225541 102 102 102 1.0
4374 0.935872 0.250501 0.813105 102 102 102 1.0
4375 0.226453 0.466934 -0.166746 102 102 102 1.0
4376 0.671343 -0.306613 0.356689 102 102 102 1.0
4377 0.254509 0.086172 0.057349 102 102 102 1.0
4378 -0.983968 0.587174 0.623419 102 102 102 1.0
4379 0.779559 -0.186373 0.572978 102 102 102 1.0
4380 -0.210421 0.755511 -0.526520 102 102 102 1.0
4381 -0.222445 -0.919840 -0.796623 102 102 102 1.0
4382 0.539078 0.318637 0.189076 102 102 102 1.0
4383 0.426854 -0.795591 -0.450761 102 102 102 1.0
4384 -0.330661 -0.386774 -0.040257 102 102 102 1.0
4385 0.579158 0.831663 -0.356240 102 102 102 1.0
4386 -0.847695 -0.418838 0.543162 102 102 102 1.0
4387 0.879759 0.975952 -0.178505 102 102 102 1.0
4388 -0.511022 0.342685 0.143710 102 102 102 1.0
4389 0.210421 0.735471 -0.496641 102 102 102 1.0
4390 0.322645 0.346693 -0.016096 102 102 102 1.0
4391 0.979960 0.979960 0.000000 102 102 102 1.0
4392 0.751503 0.891784 -0.230521 102 102 102 1.0
4393 0.547094 -0.138277 0.280192 102 102 102 1.0
4394 -0.815631 -0.811623 0.006522 102 102 102 1.0
4395 -0.911824 0.322645 0.727322 102 102 102 1.0
4396 -0.242485 0.847695 -0.659788 102 102 102 1.0
4397 0.102204 0.230461 -0.042666 102 102 102 1.0
4398 0.026052 0.863727 -0.745346 102 102 102 1.0
4399 -0.707415 0.527054 0.222650 102 102 102 1.0
4400 0.583166 -0.895792 -0.462360 102 102 102 1.0
4401 0.995992 -0.282565 0.912157 102 102 102 1.0
4402 0.923848 -0.583166 0.513412 102 102 102 1.0
4403 -0.130261 -0.535070 -0.269332 102 102 102 1.0
4404 -0.342685 0.446894 -0.082281 102 102 102 1.0
4405 0.126253 0.915832 -0.822808 102 102 102 1.0
4406 0.278557 -0.342685 -0.039839 102 102 102 1.0
4407 0.102204 -0.987976 -0.965651 102 102 102 1.0
4408 0.402806 0.406814 -0.003245 102 102 102 1.0
4409 -0.474950 0.358717 0.096899 102 102 102 1.0
4410 -0.394790 -0.154309 0.132048 102 102 102 1.0
4411 -0.907816 -0.551102 0.520416 102 102 102 1.0
4412 0.046092 -0.639279 -0.406553 102 102 102 1.0
4413 -0.799599 0.250501 0.576608 102 102 102 1.0
4414 0.639279 0.839679 -0.296384 102 102 102 1.0
4415 -0.038076 -0.947896 -0.897057 102 102 102 1.0
4416 -0.715431 -0.310621 0.415356 102 102 102 1.0
4417 -0.174349 0.619238 -0.353059 102 102 102 1.0
4418 -0.374750 0.110220 0.128289 102 102 102 1.0
4419 0.915832 0.863727 0.092723 102 102 102 1.0
4420 -0.699399 0.743487 -0.063614 102 102 102 1.0
4421 -0.278557 -0.979960 -0.882727 102 102 102 1.0
4422 0.258517 0.470942 -0.154955 102 102 102 1.0
4423 -0.855711 0.234469 0.677266 102 102 102 1.0
4424 0.923848 0.170341 0.824479 102 102 102 1.0
4425 -0.839679 0.739479 0.158232 102 102 102 1.0
4426 -0.615230 0.258517 0.311677 102 102 102 1.0
4427 -0.771543 0.334669 0.483275 102 102 102 1.0
4428 -0.815631 0.731463 0.130216 102 102 102 1.0
4429 -0.579158 -0.014028 0.335228 102 102 102 1.0
4430 0.747495 -0.599198 0.199710 102 102 102 1.0
4431 -0.659319 -0.498998 0.185702 102 102 102 1.0
4432 -0.010020 0.206413 -0.042506 102 102 102 1.0
4433 -0.046092 0.434870 -0.186987 102 102 102 1.0
4434 -0.474950 -0.026052 0.224899 102 102 102 1.0
4435 -0.739479 -0.915832 -0.291919 102 102 102 1.0
4436 -0.831663 -0.354709 0.565845 102 102 102 1.0
4437 -0.070140 -0.967936 -0.931980 102 102 102 1.0
4438 0.959920 -0.230461 0.868334 102 102 102 1.0
4439 0.254509 0.350701 -0.058217 102 102 102 1.0
4440 0.955912 0.398798 0.754728 102 102 102 1.0
4441 0.547094 0.631263 -0.099180 102 102 102 1.0
4442 -0.398798 0.266533 0.088000 102 102 102 1.0
4443 -0.214429 0.851703 -0.679419 102 102 102 1.0
4444 0.490982 0.214429 0.195084 102 102 102 1.0
4445 0.559118 -0.358717 0.183935 102 102 102 1.0
4446 -0.591182 -0.378758 0.206039 102 102 102 1.0
4447 0.394790 -0.126253 0.139919 102 102 102 1.0
4448 0.234469 0.923848 -0.798519 102 102 102 1.0
4449 -0.102204 0.430862 -0.175196 102 102 102 1.0
4450 0.679359 -0.294589 0.374745 102 102 102 1.0
4451 0.038076 -0.843687 -0.710359 102 102 102 1.0
4452 0.302605 -0.791583 -0.535034 102 102 102 1.0
4453 0.643287 0.022044 0.413332 102 102 102 1.0
4454 0.763527 -0.486974 0.345830 102 102 102 1.0
4455 -0.739479 0.843687 -0.164979 102 102 102 1.0
4456 -0.446894 0.482966 -0.033542 102 102 102 1.0
4457 -0.202405 -0.122244 0.026024 102 102 102 1.0
4458 -0.623246 -0.278557 0.310842 102 102 102 1.0
4459 -0.182365 -0.727455 -0.495934 102 102 102 1.0
4460 0.623246 0.631263 -0.010056 102 102 102 1.0
4461 0.631263 0.671343 -0.052209 102 102 102 1.0
4462 -0.350701 0.330661 0.013655 102 102 102 1.0
4463 0.895792 0.687375 0.329959 102 102 102 1.0
4464 0.042084 0.503006 -0.251244 102 102 102 1.0
4465 0.935872 0.615230 0.497347 102 102 102 1.0
4466 0.563126 0.559118 0.004498 102 102 102 1.0
4467 0.727455 0.835671 -0.169156 102 102 102 1.0
4468 0.919840 0.030060 0.845201 102 102 102 1.0
4469 -0.551102 0.531062 0.021687 102 102 102 1.0
4470 0.086172 -0.230461 -0.045687 102 102 102 1.0
4471 0.935872 0.014028 0.875659 102 102 102 1.0
4472 0.819639 -0.418838 0.496384 102 102 102 1.0
4473 -0.979960 -0.807615 0.308079 102 102 102 1.0
4474 -0.186373 -0.198397 -0.004626 102 102 102 1.0
4475 0.719439 -0.527054 0.239806 102 102 102 1.0
4476 0.106212 -0.386774 -0.138313 102 102 102 1.0
4477 -0.755511 -0.034068 0.569636 102 102 102 1.0
4478 0.438878 0.735471 -0.348304 102 102 102 1.0
4479 -0.555110 0.847695 -0.410440 102 102 102 1.0
4480 0.743487 0.507014 0.295710 102 102 102 1.0
4481 -0.270541 0.462926 -0.141108 102 102 102 1.0
4482 0.162325 0.551102 -0.277364 102 102 102 1.0
4483 -0.138277 0.462926 -0.195180 102 102 102 1.0
4484 0.939880 0.875751 0.116433 102 102 102 1.0
4485 0.783567 -0.210421 0.569701 102 102 102 1.0
4486 -0.070140 -0.959920 -0.916526 102 102 102 1.0
4487 0.498998 -0.711423 -0.257123 102 102 102 1.0
4488 -0.703407 -0.847695 -0.223806 102 102 102 1.0
4489 0.943888 -0.831663 0.199260 102 102 102 1.0
4490 0.963928 -0.242485 0.870358 102 102 102 1.0
4491 -0.358717 -0.663327 -0.311324 102 102 102 1.0
4492 0.202405 -0.222445 -0.008514 102 102 102 1.0
4493 0.286573 0.238477 0.025253 102 102 102 1.0
4494 -0.895792 -0.595190 0.448191 102 102 102 1.0
4495 0.799599 0.827655 -0.045654 102 102 102 1.0
4496 -0.006012 0.595190 -0.354215 102 102 102 1.0
4497 0.138277 0.603206 -0.344738 102 102 102 1.0
4498 -0.274549 0.334669 -0.036626 102 102 102 1.0
4499 -0.022044 0.158317 -0.024578 102 102 102 1.0
4500 0.450902 -0.627254 -0.190136 102 102 102 1.0
4501 0.775551 -0.178357 0.569668 102 102 102 1.0
4502 -0.867735 -0.066132 0.748591 102 102 102 1.0
4503 0.170341 0.054108 0.026088 102 102 102 1.0
4504 0.735471 0.783567 -0.073060 102 102 102 1.0
4505 0.955912 0.038076 0.912318 102 102 102 1.0
4506 -0.571142 0.947896 -0.572303 102 102 102 1.0
4507 -0.767535 -0.382766 0.442601 102 102 102 1.0
4508 -0.406814 -0.651303 -0.258698 102 102 102 1.0
4509 0.246493 0.046092 0.058634 102 102 102 1.0
4510 0.302605 -0.827655 -0.593443 102 102 102 1.0
4511 -0.747495 -0.214429 0.512769 102 102 102 1.0
4512 -0.555110 -0.438878 0.115534 102 102 102 1.0
4513 0.266533 -0.298597 -0.018120 102 102 102 1.0
4514 0.703407 0.266533 0.423741 102 102 102 1.0
4515 0.639279 -0.843687 -0.303131 102 102 102 1.0
4516 0.322645 -0.310621 0.007614 102 102 102 1.0
4517 0.274549 -0.887776 -0.712768 102 102 102 1.0
4518 -0.947896 -0.310621 0.802021 102 102 102 1.0
4519 -0.551102 -0.434870 0.114602 102 102 102 1.0
4520 -0.378758 0.058116 0.140080 102 102 102 1.0
4521 -0.811623 -0.118236 0.644752 102 102 102 1.0
4522 -0.082164 -0.406814 -0.158746 102 102 102 1.0
4523 -0.326653 -0.859719 -0.632415 102 102 102 1.0
4524 -0.238477 0.478958 -0.172529 102 102 102 1.0
4525 -0.174349 -0.855711 -0.701845 102 102 102 1.0
4526 0.218437 0.543086 -0.247228 102 102 102 1.0
4527 -0.767535 0.995992 -0.402890 102 102 102 1.0
4528 0.715431 -0.959920 -0.409605 102 102 102 1.0
4529 0.891784 -0.911824 -0.036144 102 102 102 1.0
4530 -0.242485 -0.763527 -0.524175 102 102 102 1.0
4531 0.134269 -0.571142 -0.308175 102 102 102 1.0
4532 -0.747495 -0.811623 -0.099984 102 102 102 1.0
4533 -0.462926 0.935872 -0.661556 102 102 102 1.0
4534 0.615230 0.278557 0.300914 102 102 102 1.0
4535 0.458918 0.102204 0.200160 102 102 102 1.0
4536 1.000000 -0.158317 0.974936 102 102 102 1.0
4537 0.162325 -0.875751 -0.740591 102 102 102 1.0
4538 -0.739479 0.158317 0.521765 102 102 102 1.0
4539 -0.679359 -0.539078 0.170923 102 102 102 1.0
4540 -0.018036 0.723447 -0.523050 102 102 102 1.0
4541 0.070140 0.122244 -0.010024 102 102 102 1.0
4542 0.482966 -0.098196 0.223614 102 102 102 1.0
4543 0.519038 -0.078156 0.263292 102 102 102 1.0
4544 0.414830 -0.014028 0.171887 102 102 102 1.0
4545 -0.290581 -0.723447 -0.438938 102 102 102 1.0
4546 0.523046 0.166333 0.245911 102 102 102 1.0
4547 0.182365 0.555110 -0.274890 102 102 102 1.0
4548 -0.426854 0.398798 0.023165 102 102 102 1.0
4549 0.767535 0.731463 0.054072 102 102 102 1.0
4550 -0.354709 0.947896 -0.772688 102 102 102 1.0
4551 0.963928 0.759519 0.352288 102 102 102 1.0
4552 0.454910 0.102204 0.196497 102 102 102 1.0
4553 0.494990 -0.210421 0.200738 102 102 102 1.0
4554 -0.186373 -0.995992 -0.957265 102 102 102 1.0
4555 0.238477 0.819639 -0.614937 102 102 102 1.0
4556 0.382766 0.639279 -0.262168 102 102 102 1.0
4557 -0.498998 0.058116 0.245622 102 102 102 1.0
4558 0.675351 0.094188 0.447227 102 102 102 1.0
4559 0.623246 -0.338677 0.273734 102 102 102 1.0
4560 0.567134 -0.070140 0.316722 102 102 102 1.0
4561 0.286573 0.907816 -0.742005 102 102 102 1.0
4562 -0.362725 -0.503006 -0.121445 102 102 102 1.0
4563 0.270541 -0.182365 0.039936 102 102 102 1.0
4564 -0.567134 -0.406814 0.156144 102 102 102 1.0
4565 -0.250501 -0.703407 -0.432030 102 102 102 1.0
4566 -0.635271 0.158317 0.378505 102 102 102 1.0
4567 0.446894 0.751503 -0.365043 102 102 102 1.0
4568 0.274549 -0.122244 0.060433 102 102 102 1.0
4569 0.354709 0.262525 0.056899 102 102 102 1.0
4570 0.462926 0.695391 -0.269268 102 102 102 1.0
4571 0.603206 0.587174 0.019084 102 102 102 1.0
4572 0.334669 0.354709 -0.013815 102 102 102 1.0
4573 -0.054108 0.406814 -0.162570 102 102 102 1.0
4574 -0.258517 0.635271 -0.336738 102 102 102 1.0
4575 0.266533 -0.058116 0.067662 102 102 102 1.0
4576 0.226453 0.987976 -0.924816 102 102 102 1.0
4577 -0.258517 0.142285 0.046586 102 102 102 1.0
4578 -0.819639 -0.515030 0.406553 102 102 102 1.0
4579 -0.935872 0.426854 0.693652 102 102 102 1.0
4580 -0.827655 0.795591 0.052048 102 102 102 1.0
4581 0.867735 0.971944 -0.191710 102 102 102 1.0
4582 -0.883768 0.799599 0.141686 102 102 102 1.0
4583 0.198397 -0.130261 0.022393 102 102 102 1.0
4584 -0.326653 -0.691383 -0.371308 102 102 102 1.0
4585 0.394790 -0.310621 0.059373 102 102 102 1.0
4586 -0.362725 -0.002004 0.131566 102 102 102 1.0
4587 -0.667335 0.787575 -0.174939 102 102 102 1.0
4588 0.959920 0.671343 0.470745 102 102 102 1.0
4589 -0.446894 -0.643287 -0.214104 102 102 102 1.0
4590 -0.038076 0.855711 -0.730792 102 102 102 1.0
4591 0.619238 -0.258517 0.316625 102 102 102 1.0
4592 0.679359 0.847695 -0.257059 102 102 102 1.0
4593 -0.719439 0.030060 0.516689 102 102 102 1.0
4594 -0.623246 -0.250501 0.325685 102 102 102 1.0
4595 0.839679 0.450902 0.501749 102 102 102 1.0
4596 0.098196 -0.887776 -0.778503 102 102 102 1.0
4597 -0.551102 -0.931864 -0.564656 102 102 102 1.0
4598 0.022044 0.907816 -0.823643 102 102 102 1.0
4599 0.835671 0.334669 0.586343 102 102 102 1.0
4600 -0.222445 0.070140 0.044562 102 102 102 1.0
4601 0.535070 -0.991984 -0.697732 102 102 102 1.0
4602 -0.943888 -0.210421 0.846647 102 102 102 1.0
4603 -0.354709 -0.835671 -0.572528 102 102 102 1.0
4604 -0.482966 -0.811623 -0.425476 102 102 102 1.0
4605 0.679359 0.507014 0.204465 102 102 102 1.0
4606 -0.775551 -0.835671 -0.096867 102 102 102 1.0
4607 -0.486974 -0.006012 0.237107 102 102 102 1.0
4608 0.346693 0.879759 -0.653781 102 102 102 1.0
4609 0.595190 0.390782 0.201541 102 102 102 1.0
4610 -0.070140 0.671343 -0.445781 102 102 102 1.0
4611 0.330661 0.951904 -0.796784 102 102 102 1.0
4612 0.995992 0.991984 0.007968 102 102 102 1.0
4613 -0.150301 -0.194389 -0.015197 102 102 102 1.0
4614 0.486974 -0.122244 0.222200 102 102 102 1.0
4615 0.947896 -0.194389 0.860719 102 102 102 1.0
4616 0.250501 -0.298597 -0.026410 102 102 102 1.0
4617 -0.771543 0.539078 0.304673 102 102 102 1.0
4618 -0.210421 0.707415 -0.456159 102 102 102 1.0
4619 0.038076 0.094188 -0.007422 102 102 102 1.0
4620 0.855711 -0.547094 0.432930 102 102 102 1.0
4621 -0.871744 -0.054108 0.757009 102 102 102 1.0
4622 -0.186373 0.202405 -0.006233 102 102 102 1.0
4623 0.010020 0.823647 -0.678294 102 102 102 1.0
4624 0.831663 -0.975952 -0.260818 102 102 102 1.0
4625 -0.066132 0.422846 -0.174425 102 102 102 1.0
4626 -0.382766 0.494990 -0.098506 102 102 102 1.0
4627 0.270541 -0.090180 0.065060 102 102 102 1.0
4628 0.967936 -0.398798 0.777860 102 102 102 1.0
4629 -0.779559 -0.430862 0.422071 102 102 102 1.0
4630 0.759519 -0.619238 0.193413 102 102 102 1.0
4631 -0.987976 -0.486974 0.738953 102 102 102 1.0
4632 0.074148 -0.823647 -0.672897 102 102 102 1.0
4633 0.358717 -0.390782 -0.024032 102 102 102 1.0
4634 -0.547094 -0.699399 -0.189847 102 102 102 1.0
4635 0.807615 -0.575150 0.321444 102 102 102 1.0
4636 0.194389 1.000000 -0.962213 102 102 102 1.0
4637 -0.138277 -0.314629 -0.079871 102 102 102 1.0
4638 0.270541 -0.603206 -0.290666 102 102 102 1.0
4639 0.198397 -0.478958 -0.190039 102 102 102 1.0
4640 -0.090180 -0.098196 -0.001510 102 102 102 1.0
4641 -0.671343 0.234469 0.395725 102 102 102 1.0
4642 0.843687 -0.318637 0.610279 102 102 102 1.0
4643 0.975952 0.378758 0.809025 102 102 102 1.0
4644 -0.847695 0.903808 -0.098281 102 102 102 1.0
4645 0.174349 -0.410822 -0.138377 102 102 102 1.0
4646 0.010020 -0.635271 -0.403468 102 102 102 1.0
4647 -0.635271 0.747495 -0.155180 102 102 102 1.0
4648 -0.707415 0.266533 0.429396 102 102 102 1.0
4649 -0.086172 0.230461 -0.045687 102 102 102 1.0
4650 0.679359 -0.398798 0.302489 102 102 102 1.0
4651 -0.470942 -0.254509 0.157011 102 102 102 1.0
4652 -0.422846 -0.262525 0.109879 102 102 102 1.0
4653 -0.254509 -0.018036 0.064450 102 102 102 1.0
4654 0.346693 -0.647295 -0.298794 102 102 102 1.0
4655 -0.967936 0.310621 0.840414 102 102 102 1.0
4656 -0.162325 0.551102 -0.277364 102 102 102 1.0
4657 -0.783567 -0.507014 0.356914 102 102 102 1.0
4658 -0.374750 0.470942 -0.081349 102 102 102 1.0
4659 0.671343 -0.338677 0.335999 102 102 102 1.0
4660 -0.583166 0.410822 0.171309 102 102 102 1.0
4661 -0.182365 -0.058116 0.029879 102 102 102 1.0
4662 -0.014028 -0.290581 -0.084241 102 102 102 1.0
4663 -0.134269 0.210421 -0.026249 102 102 102 1.0
4664 0.735471 -0.611222 0.167325 102 102 102 1.0
4665 -0.182365 0.515030 -0.231999 102 102 102 1.0
4666 0.394790 0.102204 0.145413 102 102 102 1.0
4667 0.923848 0.867735 0.100530 102 102 102 1.0
4668 0.515030 0.166333 0.237589 102 102 102 1.0
4669 -0.671343 -0.595190 0.096449 102 102 102 1.0
4670 -0.018036 0.102204 -0.010120 102 102 102 1.0
4671 -0.703407 -0.939880 -0.388593 102 102 102 1.0
4672 -0.342685 -0.603206 -0.246425 102 102 102 1.0
4673 -0.182365 -0.398798 -0.125783 102 102 102 1.0
4674 -0.102204 -0.194389 -0.027341 102 102 102 1.0
4675 0.350701 -0.595190 -0.231260 102 102 102 1.0
4676 -0.767535 -0.198397 0.549749 102 102 102 1.0
4677 0.234469 -0.286573 -0.027148 102 102 102 1.0
4678 0.182365 -0.246493 -0.027502 102 102 102 1.0
4679 0.222445 -0.527054 -0.228304 102 102 102 1.0
4680 0.390782 0.843687 -0.559098 102 102 102 1.0
4681 -0.390782 -0.410822 -0.016064 102 102 102 1.0
4682 -0.078156 0.494990 -0.238907 102 102 102 1.0
4683 -0.779559 -0.258517 0.540881 102 102 102 1.0
4684 -0.426854 0.555110 -0.125943 102 102 102 1.0
4685 0.927856 -0.879759 0.086939 102 102 102 1.0
4686 0.262525 0.639279 -0.339758 102 102 102 1.0
4687 -0.126253 -0.442886 -0.180208 102 102 102 1.0
4688 0.334669 -0.531062 -0.170023 102 102 102 1.0
4689 0.771543 -0.058116 0.591901 102 102 102 1.0
4690 0.947896 0.671343 0.447805 102 102 102 1.0
4691 0.238477 0.655311 -0.372561 102 102 102 1.0
4692 -0.675351 0.771543 -0.139180 102 102 102 1.0
4693 0.370741 0.302605 0.045879 102 102 102 1.0
4694 -0.611222 0.951904 -0.532528 102 102 102 1.0
4695 -0.519038 0.318637 0.167871 102 102 102 1.0
4696 -0.559118 -1.000000 -0.687387 102 102 102 1.0
4697 0.062124 -0.735471 -0.537058 102 102 102 1.0
4698 0.943888 0.723447 0.367549 102 102 102 1.0
4699 0.751503 -0.595190 0.210505 102 102 102 1.0
4700 0.226453 -0.755511 -0.519516 102 102 102 1.0
4701 -0.262525 -0.398798 -0.090120 102 102 102 1.0
4702 0.639279 -0.434870 0.219565 102 102 102 1.0
4703 -0.651303 0.346693 0.303999 102 102 102 1.0
4704 0.515030 0.715431 -0.246585 102 102 102 1.0
4705 0.142285 0.955912 -0.893523 102 102 102 1.0
4706 -0.198397 -0.623246 -0.349075 102 102 102 1.0
4707 -0.482966 -0.402806 0.071004 102 102 102 1.0
4708 0.082164 -0.963928 -0.922406 102 102 102 1.0
4709 0.058116 -0.466934 -0.214650 102 102 102 1.0
4710 -0.731463 -0.454910 0.328095 102 102 102 1.0
4711 -0.130261 -0.843687 -0.694841 102 102 102 1.0
4712 0.226453 0.134269 0.033253 102 102 102 1.0
4713 0.823647 -0.615230 0.299886 102 102 102 1.0
4714 -0.839679 -0.691383 0.227051 102 102 102 1.0
4715 -0.314629 -0.410822 -0.069783 102 102 102 1.0
4716 0.262525 -0.278557 -0.008675 102 102 102 1.0
4717 -0.623246 0.306613 0.294425 102 102 102 1.0
4718 -0.791583 -0.182365 0.593347 102 102 102 1.0
4719 0.763527 -0.490982 0.341910 102 102 102 1.0
4720 0.799599 0.118236 0.625379 102 102 102 1.0
4721 -0.667335 0.102204 0.434890 102 102 102 1.0
4722 -0.362725 0.402806 -0.030683 102 102 102 1.0
4723 -0.218437 -0.791583 -0.578889 102 102 102 1.0
4724 0.591182 -0.863727 -0.396529 102 102 102 1.0
4725 0.599198 0.911824 -0.472384 102 102 102 1.0
4726 0.406814 0.086172 0.158072 102 102 102 1.0
4727 -0.414830 0.414830 0.000000 102 102 102 1.0
4728 0.563126 0.771543 -0.278168 102 102 102 1.0
4729 -0.635271 -0.595190 0.049317 102 102 102 1.0
4730 -0.178357 0.771543 -0.563468 102 102 102 1.0
4731 0.166333 0.771543 -0.567612 102 102 102 1.0
4732 0.134269 -0.963928 -0.911129 102 102 102 1.0
4733 0.979960 -0.074148 0.954823 102 102 102 1.0
4734 -0.595190 0.342685 0.236818 102 102 102 1.0
4735 -0.823647 0.895792 -0.124048 102 102 102 1.0
4736 0.446894 -0.555110 -0.108433 102 102 102 1.0
4737 0.643287 -0.619238 0.030361 102 102 102 1.0
4738 -0.883768 -0.595190 0.426793 102 102 102 1.0
4739 0.250501 -0.963928 -0.866406 102 102 102 1.0
4740 -0.318637 0.887776 -0.686616 102 102 102 1.0
4741 0.018036 0.002004 0.000321 102 102 102 1.0
4742 -0.751503 0.282565 0.484914 102 102 102 1.0
4743 -0.843687 0.559118 0.399195 102 102 102 1.0
4744 0.731463 -0.474950 0.309461 102 102 102 1.0
4745 0.294589 -0.226453 0.035502 102 102 102 1.0
4746 0.703407 -0.559118 0.182168 102 102 102 1.0
4747 -0.755511 -0.422846 0.391998 102 102 102 1.0
4748 0.202405 0.462926 -0.173333 102 102 102 1.0
4749 -0.246493 -0.959920 -0.860687 102 102 102 1.0
4750 0.318637 0.627254 -0.291919 102 102 102 1.0
4751 0.362725 -0.138277 0.112449 102 102 102 1.0
4752 -0.975952 0.935872 0.076626 102 102 102 1.0
4753 0.030060 -0.062124 -0.002956 102 102 102 1.0
4754 -0.374750 0.426854 -0.041767 102 102 102 1.0
4755 -0.126253 -0.330661 -0.093397 102 102 102 1.0
4756 0.070140 0.651303 -0.419275 102 102 102 1.0
4757 -0.887776 0.671343 0.337444 102 102 102 1.0
4758 -0.839679 -0.827655 0.020048 102 102 102 1.0
4759 0.671343 0.102204 0.440255 102 102 102 1.0
4760 -0.571142 -0.531062 0.044177 102 102 102 1.0
4761 -0.326653 -0.134269 0.088674 102 102 102 1.0
4762 -0.046092 -0.811623 -0.656608 102 102 102 1.0
4763 -0.262525 0.490982 -0.172144 102 102 102 1.0
4764 -0.290581 -0.979960 -0.875884 102 102 102 1.0
4765 0.527054 -0.334669 0.165782 102 102 102 1.0
4766 -0.807615 0.519038 0.382842 102 102 102 1.0
4767 -0.583166 -0.150301 0.317493 102 102 102 1.0
4768 -0.943888 -0.450902 0.687612 102 102 102 1.0
4769 -0.314629 -0.262525 0.030072 102 102 102 1.0
4770 -0.571142 0.126253 0.310264 102 102 102 1.0
4771 0.006012 0.603206 -0.363822 102 102 102 1.0
4772 0.326653 -0.090180 0.098570 102 102 102 1.0
4773 0.747495 0.030060 0.557845 102 102 102 1.0
4774 0.723447 -0.130261 0.506408 102 102 102 1.0
4775 0.298597 0.122244 0.074217 102 102 102 1.0
4776 -0.731463 -0.547094 0.235726 102 102 102 1.0
4777 -0.903808 -0.551102 0.513155 102 102 102 1.0
4778 -0.098196 0.587174 -0.335131 102 102 102 1.0
4779 0.675351 0.338677 0.341396 102 102 102 1.0
4780 0.270541 0.222445 0.023711 102 102 102 1.0
4781 0.715431 -0.430862 0.326200 102 102 102 1.0
4782 -0.643287 -0.258517 0.346987 102 102 102 1.0
4783 0.310621 -0.150301 0.073895 102 102 102 1.0
4784 0.206413 -0.731463 -0.492432 102 102 102 1.0
4785 -0.026052 -0.743487 -0.552094 102 102 102 1.0
4786 -0.350701 -0.098196 0.113349 102 102 102 1.0
4787 0.883768 -0.326653 0.674343 102 102 102 1.0
4788 -0.102204 -0.094188 0.001574 102 102 102 1.0
4789 -0.931864 0.851703 0.142971 102 102 102 1.0
4790 0.603206 -0.478958 0.134457 102 102 102 1.0
4791 -0.775551 -0.358717 0.472801 102 102 102 1.0
4792 0.851703 0.166333 0.697732 102 102 102 1.0
4793 -0.795591 -0.843687 -0.078843 102 102 102 1.0
4794 -0.907816 0.591182 0.474633 102 102 102 1.0
4795 0.875751 0.498998 0.517942 102 102 102 1.0
4796 -0.675351 0.863727 -0.289927 102 102 102 1.0
4797 0.322645 -0.563126 -0.213011 102 102 102 1.0
4798 0.078156 0.531062 -0.275919 102 102 102 1.0
4799 0.903808 0.779559 0.209156 102 102 102 1.0
4800 0.114228 -0.366733 -0.121445 102 102 102 1.0
4801 1.000000 0.691383 0.521990 102 102 102 1.0
4802 -0.735471 0.018036 0.540592 102 102 102 1.0
4803 -0.230461 0.887776 -0.735033 102 102 102 1.0
4804 0.494990 0.695391 -0.238553 102 102 102 1.0
4805 -0.410822 0.995992 -0.823226 102 102 102 1.0
4806 0.795591 -0.687375 0.160481 102 102 102 1.0
4807 0.611222 0.114228 0.360545 102 102 102 1.0
4808 -0.863727 -0.454910 0.539082 102 102 102 1.0
4809 -0.643287 -0.066132 0.409444 102 102 102 1.0
4810 0.406814 0.122244 0.150554 102 102 102 1.0
4811 0.583166 -0.591182 -0.009414 102 102 102 1.0
4812 -0.458918 0.222445 0.161124 102 102 102 1.0
4813 -0.494990 -0.835671 -0.453332 102 102 102 1.0
4814 -0.767535 -0.831663 -0.102554 102 102 102 1.0
4815 -0.679359 0.599198 0.102490 102 102 102 1.0
4816 -0.322645 0.747495 -0.454649 102 102 102 1.0
4817 -0.458918 -0.547094 -0.088706 102 102 102 1.0
4818 0.486974 0.523046 -0.036434 102 102 102 1.0
4819 0.571142 0.551102 0.022490 102 102 102 1.0
4820 0.262525 0.078156 0.062811 102 102 102 1.0
4821 -0.202405 -0.194389 0.003181 102 102 102 1.0
4822 -0.206413 0.386774 -0.106988 102 102 102 1.0
4823 -0.218437 -0.611222 -0.325878 102 102 102 1.0
4824 -0.819639 -0.410822 0.503034 102 102 102 1.0
4825 -0.102204 0.110220 -0.001703 102 102 102 1.0
4826 0.306613 -0.350701 -0.028980 102 102 102 1.0
4827 -0.322645 0.126253 0.088160 102 102 102 1.0
4828 0.711423 0.082164 0.499371 102 102 102 1.0
4829 0.082164 0.162325 -0.019598 102 102 102 1.0
4830 -0.098196 -0.190381 -0.026602 102 102 102 1.0
4831 0.935872 0.154309 0.852045 102 102 102 1.0
4832 -0.290581 0.771543 -0.510841 102 102 102 1.0
4833 0.138277 0.799599 -0.620238 102 102 102 1.0
4834 -0.342685 -0.106212 0.106152 102 102 102 1.0
4835 0.450902 -0.322645 0.099212 102 102 102 1.0
4836 0.859719 -0.374750 0.598680 102 102 102 1.0
4837 -0.699399 0.366733 0.354665 102 102 102 1.0
4838 -0.739479 0.146293 0.525428 102 102 102 1.0
4839 -0.927856 -0.134269 0.842888 102 102 102 1.0
4840 0.490982 -0.414830 0.068980 102 102 102 1.0
4841 0.478958 -0.346693 0.109204 102 102 102 1.0
4842 0.482966 0.186373 0.198521 102 102 102 1.0
4843 -0.270541 -0.110220 0.061044 102 102 102 1.0
4844 0.555110 0.334669 0.196144 102 102 102 1.0
4845 -0.783567 -0.402806 0.451725 102 102 102 1.0
4846 0.430862 0.018036 0.185317 102 102 102 1.0
4847 0.382766 0.282565 0.066666 102 102 102 1.0
4848 -0.503006 0.559118 -0.059598 102 102 102 1.0
4849 0.058116 0.951904 -0.902743 102 102 102 1.0
4850 0.659319 0.547094 0.135389 102 102 102 1.0
4851 0.026052 -0.819639 -0.671130 102 102 102 1.0
4852 -0.743487 0.310621 0.456287 102 102 102 1.0
4853 0.991984 0.322645 0.879932 102 102 102 1.0
4854 0.567134 0.414830 0.149558 102 102 102 1.0
4855 -0.386774 0.667335 -0.295742 102 102 102 1.0
4856 -0.042084 -0.242485 -0.057028 102 102 102 1.0
4857 0.186373 -0.022044 0.034249 102 102 102 1.0
4858 0.306613 -0.098196 0.084369 102 102 102 1.0
4859 -0.507014 0.683367 -0.209927 102 102 102 1.0
4860 0.210421 -0.346693 -0.075919 102 102 102 1.0
4861 -0.398798 0.366733 0.024546 102 102 102 1.0
4862 -0.655311 0.442886 0.233284 102 102 102 1.0
4863 0.683367 -0.454910 0.260047 102 102 102 1.0
4864 0.222445 0.531062 -0.232545 102 102 102 1.0
4865 -0.615230 -0.066132 0.374135 102 102 102 1.0
4866 0.370741 -0.579158 -0.197975 102 102 102 1.0
4867 -0.567134 -0.679359 -0.139887 102 102 102 1.0
4868 0.498998 0.939880 -0.634375 102 102 102 1.0
4869 -0.306613 0.723447 -0.429364 102 102 102 1.0
4870 -0.122244 0.915832 -0.823804 102 102 102 1.0
4871 -0.038076 0.627254 -0.391998 102 102 102 1.0
4872 -0.166333 0.919840 -0.818438 102 102 102 1.0
4873 0.138277 -0.531062 -0.262907 102 102 102 1.0
4874 -0.759519 0.567134 0.255228 102 102 102 1.0
4875 -0.751503 -0.042084 0.562986 102 102 102 1.0
4876 0.302605 -0.855711 -0.640672 102 102 102 1.0
4877 -0.486974 0.959920 -0.684302 102 102 102 1.0
4878 0.410822 0.555110 -0.139373 102 102 102 1.0
4879 0.619238 -0.923848 -0.470038 102 102 102 1.0
4880 -0.446894 0.418838 0.024289 102 102 102 1.0
4881 0.791583 0.086172 0.619178 102 102 102 1.0
4882 0.386774 -0.959920 -0.771852 102 102 102 1.0
4883 -0.194389 0.382766 -0.108722 102 102 102 1.0
4884 -0.663327 -0.979960 -0.520319 102 102 102 1.0
4885 -0.663327 -0.374750 0.299565 102 102 102 1.0
4886 0.134269 0.026052 0.017349 102 102 102 1.0
4887 -0.250501 0.282565 -0.017092 102 102 102 1.0
4888 -0.503006 0.819639 -0.418793 102 102 102 1.0
4889 -0.202405 0.478958 -0.188433 102 102 102 1.0
4890 0.002004 -0.675351 -0.456095 102 102 102 1.0
4891 -0.799599 -0.090180 0.631226 102 102 102 1.0
4892 0.751503 -0.715431 0.052915 102 102 102 1.0
4893 -0.671343 0.715431 -0.061140 102 102 102 1.0
4894 -0.879759 -0.246493 0.713218 102 102 102 1.0
4895 0.927856 -0.515030 0.595660 102 102 102 1.0
4896 0.174349 0.338677 -0.084305 102 102 102 1.0
4897 0.927856 0.567134 0.539275 102 102 102 1.0
4898 -0.699399 -0.474950 0.263581 102 102 102 1.0
4899 -0.342685 0.006012 0.117397 102 102 102 1.0
4900 0.366733 0.963928 -0.794663 102 102 102 1.0
4901 0.326653 0.619238 -0.276754 102 102 102 1.0
4902 0.967936 0.290581 0.852462 102 102 102 1.0
4903 -0.779559 0.815631 -0.057542 102 102 102 1.0
4904 -0.398798 0.398798 0.000000 102 102 102 1.0
4905 0.767535 -0.627254 0.195662 102 102 102 1.0
4906 -0.863727 -0.811623 0.087293 102 102 102 1.0
4907 -0.667335 -0.178357 0.413524 102 102 102 1.0
4908 -0.811623 -0.699399 0.169574 102 102 102 1.0
4909 0.695391 -0.270541 0.410376 102 102 102 1.0
4910 -0.230461 -0.575150 -0.277686 102 102 102 1.0
4911 0.763527 -0.122244 0.568030 102 102 102 1.0
4912 -0.595190 0.611222 -0.019341 102 102 102 1.0
4913 -0.751503 -0.643287 0.150939 102 102 102 1.0
4914 0.683367 -0.410822 0.298216 102 102 102 1.0
4915 -0.759519 0.583166 0.236786 102 102 102 1.0
4916 0.779559 -0.819639 -0.064096 102 102 102 1.0
4917 0.931864 0.006012 0.868334 102 102 102 1.0
4918 -0.579158 0.406814 0.169927 102 102 102 1.0
4919 -0.835671 -0.979960 -0.261975 102 102 102 1.0
4920 0.042084 0.539078 -0.288834 102 102 102 1.0
4921 0.595190 -0.699399 -0.134907 102 102 102 1.0
4922 0.663327 -0.426854 0.257798 102 102 102 1.0
4923 0.278557 -0.186373 0.042859 102 102 102 1.0
4924 -0.819639 -0.823647 -0.006586 102 102 102 1.0
4925 -0.631263 0.198397 0.359131 102 102 102 1.0
4926 0.322645 0.563126 -0.213011 102 102 102 1.0
4927 0.571142 0.326653 0.219501 102 102 102 1.0
4928 -0.775551 0.426854 0.419275 102 102 102 1.0
4929 -0.723447 0.446894 0.323661 102 102 102 1.0
4930 -0.014028 -0.699399 -0.488962 102 102 102 1.0
4931 -0.995992 0.298597 0.902840 102 102 102 1.0
4932 -0.891784 -0.186373 0.760543 102 102 102 1.0
4933 0.751503 0.322645 0.460657 102 102 102 1.0
4934 -0.691383 0.807615 -0.174232 102 102 102 1.0
4935 0.090180 0.194389 -0.029654 102 102 102 1.0
4936 0.238477 -0.851703 -0.668527 102 102 102 1.0
4937 0.879759 0.086172 0.766551 102 102 102 1.0
4938 -0.266533 -0.635271 -0.332529 102 102 102 1.0
4939 0.995992 0.378758 0.848543 102 102 102 1.0
4940 -0.503006 -0.795591 -0.379950 102 102 102 1.0
4941 0.591182 0.575150 0.018699 102 102 102 1.0
4942 0.795591 -0.374750 0.492528 102 102 102 1.0
4943 0.006012 -0.859719 -0.739081 102 102 102 1.0
4944 -0.843687 -0.987976 -0.264288 102 102 102 1.0
4945 0.535070 0.494990 0.041285 102 102 102 1.0
4946 -0.454910 0.250501 0.144192 102 102 102 1.0
4947 -0.731463 -0.450902 0.331726 102 102 102 1.0
4948 -0.114228 -0.050100 0.010538 102 102 102 1.0
4949 -0.278557 -0.667335 -0.367741 102 102 102 1.0
4950 0.831663 -0.935872 -0.184192 102 102 102 1.0
4951 -0.695391 -0.434870 0.294457 102 102 102 1.0
4952 -0.102204 -0.346693 -0.109751 102 102 102 1.0
4953 0.090180 0.110220 -0.004016 102 102 102 1.0
4954 -0.763527 -0.458918 0.372368 102 102 102 1.0
4955 0.671343 -0.803607 -0.195084 102 102 102 1.0
4956 0.078156 -0.903808 -0.810760 102 102 102 1.0
4957 0.823647 -0.539078 0.387790 102 102 102 1.0
4958 0.591182 -0.274549 0.274119 102 102 102 1.0
4959 -0.799599 0.262525 0.570439 102 102 102 1.0
4960 0.002004 0.342685 -0.117429 102 102 102 1.0
4961 -0.358717 -0.831663 -0.562986 102 102 102 1.0
4962 -0.338677 0.995992 -0.877298 102 102 102 1.0
4963 -0.747495 -0.519038 0.289348 102 102 102 1.0
4964 -0.931864 -0.370741 0.730921 102 102 102 1.0
4965 0.394790 0.663327 -0.284143 102 102 102 1.0
4966 -0.687375 -0.751503 -0.092273 102 102 102 1.0
4967 -0.983968 0.591182 0.618696 102 102 102 1.0
4968 0.847695 -0.579158 0.383163 102 102 102 1.0
4969 0.915832 0.378758 0.695290 102 102 102 1.0
4970 -0.667335 0.214429 0.399356 102 102 102 1.0
4971 -0.366733 0.466934 -0.083534 102 102 102 1.0
4972 -0.478958 0.382766 0.082891 102 102 102 1.0
4973 -0.182365 -0.122244 0.018313 102 102 102 1.0
4974 0.406814 0.102204 0.155052 102 102 102 1.0
4975 0.046092 0.739479 -0.544705 102 102 102 1.0
4976 0.466934 0.711423 -0.288095 102 102 102 1.0
4977 -0.406814 -0.262525 0.096578 102 102 102 1.0
4978 0.567134 -0.254509 0.256866 102 102 102 1.0
4979 0.831663 -0.503006 0.438649 102 102 102 1.0
4980 0.230461 -0.919840 -0.792993 102 102 102 1.0
4981 0.743487 -0.170341 0.523757 102 102 102 1.0
4982 -0.715431 -0.627254 0.118393 102 102 102 1.0
4983 0.018036 -0.198397 -0.039036 102 102 102 1.0
4984 0.422846 -0.511022 -0.082345 102 102 102 1.0
4985 0.751503 -0.382766 0.418247 102 102 102 1.0
4986 0.559118 0.787575 -0.307661 102 102 102 1.0
4987 -0.599198 0.322645 0.254939 102 102 102 1.0
4988 0.775551 -0.935872 -0.274376 102 102 102 1.0
4989 0.386774 0.819639 -0.522215 102 102 102 1.0
4990 0.687375 -0.587174 0.127710 102 102 102 1.0
4991 0.086172 -0.362725 -0.124144 102 102 102 1.0
4992 -0.827655 -0.234469 0.630038 102 102 102 1.0
4993 -0.671343 -0.034068 0.449540 102 102 102 1.0
4994 0.943888 -0.799599 0.251565 102 102 102 1.0
4995 0.486974 0.743487 -0.315629 102 102 102 1.0
4996 -0.915832 -0.338677 0.724045 102 102 102 1.0
4997 0.567134 0.835671 -0.376705 102 102 102 1.0
4998 -0.871744 0.855711 0.027695 102 102 102 1.0
4999 0.819639 -0.070140 0.666889 102 102 102 1.0
5000 -0.807615 0.026052 0.651564 102 102 102 1.0
5001 -0.663327 0.819639 -0.231806 102 102 102 1.0
5002 -0.971944 0.294589 0.857892 102 102 102 1.0
5003 -0.446894 0.018036 0.199389 102 102 102 1.0
5004 0.823647 0.042084 0.676624 102 102 102 1.0
5005 0.210421 0.154309 0.020466 102 102 102 1.0
5006 0.246493 0.158317 0.035695 102 102 102 1.0
5007 -0.098196 0.402806 -0.152610 102 102 102 1.0
5008 -0.010020 -0.358717 -0.128578 102 102 102 1.0
5009 0.839679 -0.707415 0.204626 102 102 102 1.0
5010 0.182365 -0.771543 -0.562022 102 102 102 1.0
5011 0.635271 -0.991984 -0.580464 102 102 102 1.0
5012 0.210421 0.398798 -0.114763 102 102 102 1.0
5013 0.274549 0.795591 -0.557588 102 102 102 1.0
5014 0.002004 -1.000000 -0.999996 102 102 102 1.0
5015 -0.807615 0.390782 0.499532 102 102 102 1.0
5016 -0.767535 0.759519 0.012241 102 102 102 1.0
5017 0.703407 0.827655 -0.190232 102 102 102 1.0
5018 0.306613 -0.887776 -0.694134 102 102 102 1.0
5019 -0.402806 -0.763527 -0.420721 102 102 102 1.0
5020 -0.667335 -0.843687 -0.266473 102 102 102 1.0
5021 -0.074148 -0.631263 -0.392994 102 102 102 1.0
5022 -0.406814 -0.210421 0.121220 102 102 102 1.0
5023 0.899800 -0.643287 0.395822 102 102 102 1.0
5024 -0.214429 0.911824 -0.785443 102 102 102 1.0
5025 -0.631263 -0.707415 -0.101943 102 102 102 1.0
5026 0.038076 -0.871744 -0.758487 102 102 102 1.0
5027 0.178357 0.254509 -0.032964 102 102 102 1.0
5028 0.503006 -0.138277 0.233895 102 102 102 1.0
5029 0.046092 0.474950 -0.223453 102 102 102 1.0
5030 -0.338677 -0.086172 0.107277 102 102 102 1.0
5031 0.354709 -0.971944 -0.818856 102 102 102 1.0
5032 -0.619238 0.691383 -0.094554 102 102 102 1.0
5033 0.122244 0.130261 -0.002024 102 102 102 1.0
5034 -0.667335 0.194389 0.407549 102 102 102 1.0
5035 -0.991984 0.639279 0.575355 102 102 102 1.0
5036 -0.014028 0.791583 -0.626407 102 102 102 1.0
5037 0.186373 -0.783567 -0.579243 102 102 102 1.0
5038 -0.182365 -0.603206 -0.330601 102 102 102 1.0
5039 -0.434870 -0.426854 0.006908 102 102 102 1.0
5040 0.090180 0.086172 0.000707 102 102 102 1.0
5041 -0.030060 -0.931864 -0.867466 102 102 102 1.0
5042 -0.142285 0.967936 -0.916655 102 102 102 1.0
5043 -0.603206 -0.907816 -0.460271 102 102 102 1.0
5044 0.779559 -0.879759 -0.166264 102 102 102 1.0
5045 0.867735 -0.919840 -0.093140 102 102 102 1.0
5046 0.442886 0.422846 0.017349 102 102 102 1.0
5047 0.242485 -0.002004 0.058795 102 102 102 1.0
5048 -0.334669 0.098196 0.102361 102 102 102 1.0
5049 -0.002004 -0.607214 -0.368705 102 102 102 1.0
5050 -0.290581 0.214429 0.038458 102 102 102 1.0
5051 0.927856 -0.951904 -0.045205 102 102 102 1.0
5052 -0.458918 0.066132 0.206232 102 102 102 1.0
5053 -0.262525 0.747495 -0.489829 102 102 102 1.0
5054 0.370741 0.543086 -0.157493 102 102 102 1.0
5055 -0.386774 0.599198 -0.209445 102 102 102 1.0
5056 0.494990 0.791583 -0.381589 102 102 102 1.0
5057 -0.206413 0.579158 -0.292818 102 102 102 1.0
5058 -0.422846 0.551102 -0.124915 102 102 102 1.0
5059 0.515030 0.947896 -0.633250 102 102 102 1.0
5060 0.655311 -0.835671 -0.268915 102 102 102 1.0
5061 0.671343 0.579158 0.115277 102 102 102 1.0
5062 0.703407 0.803607 -0.151003 102 102 102 1.0
5063 0.498998 -0.795591 -0.383966 102 102 102 1.0
5064 0.799599 0.426854 0.457155 102 102 102 1.0
5065 0.907816 -0.414830 0.652046 102 102 102 1.0
5066 -0.659319 -0.859719 -0.304416 102 102 102 1.0
5067 -0.402806 -0.342685 0.044819 102 102 102 1.0
5068 -0.282565 0.214429 0.033863 102 102 102 1.0
5069 0.206413 -0.158317 0.017542 102 102 102 1.0
5070 -0.507014 0.066132 0.252690 102 102 102 1.0
5071 -0.262525 0.851703 -0.656479 102 102 102 1.0
5072 0.555110 -0.278557 0.230553 102 102 102 1.0
5073 -0.587174 -0.503006 0.091759 102 102 102 1.0
5074 0.486974 0.843687 -0.474665 102 102 102 1.0
5075 0.607214 0.434870 0.179598 102 102 102 1.0
5076 -0.547094 0.334669 0.187308 102 102 102 1.0
5077 0.943888 -0.302605 0.799354 102 102 102 1.0
5078 0.631263 0.130261 0.381525 102 102 102 1.0
5079 -0.743487 -0.058116 0.549395 102 102 102 1.0
5080 -0.759519 0.639279 0.168192 102 102 102 1.0
5081 0.859719 0.306613 0.645106 102 102 102 1.0
5082 -0.206413 -0.178357 0.010795 102 102 102 1.0
5083 0.418838 -0.466934 -0.042602 102 102 102 1.0
5084 -0.523046 0.398798 0.114538 102 102 102 1.0
5085 0.567134 -0.507014 0.064578 102 102 102 1.0
5086 -0.899800 0.106212 0.798358 102 102 102 1.0
5087 -0.234469 -0.915832 -0.783772 102 102 102 1.0
5088 0.691383 0.955912 -0.435757 102 102 102 1.0
5089 0.406814 -0.983968 -0.802696 102 102 102 1.0
5090 -0.018036 0.490982 -0.240738 102 102 102 1.0
5091 -0.955912 0.370741 0.776318 102 102 102 1.0
5092 0.178357 0.687375 -0.440673 102 102 102 1.0
5093 0.543086 0.515030 0.029687 102 102 102 1.0
5094 0.158317 -0.014028 0.024867 102 102 102 1.0
5095 0.975952 0.875751 0.185541 102 102 102 1.0
5096 0.663327 0.667335 -0.005333 102 102 102 1.0
5097 0.535070 -0.058116 0.282923 102 102 102 1.0
5098 -0.771543 -0.022044 0.594793 102 102 102 1.0
5099 0.014028 -0.675351 -0.455902 102 102 102 1.0
5100 -0.811623 0.843687 -0.053076 102 102 102 1.0
5101 -0.979960 -0.138277 0.941201 102 102 102 1.0
5102 0.535070 0.058116 0.282923 102 102 102 1.0
5103 -0.278557 0.026052 0.076915 102 102 102 1.0
5104 -0.014028 0.679359 -0.461331 102 102 102 1.0
5105 -0.803607 0.398798 0.486745 102 102 102 1.0
5106 -0.402806 -0.867735 -0.590712 102 102 102 1.0
5107 0.130261 -0.991984 -0.967064 102 102 102 1.0
5108 0.146293 -0.727455 -0.507789 102 102 102 1.0
5109 0.438878 -0.314629 0.093622 102 102 102 1.0
5110 -0.058116 0.174349 -0.027020 102 102 102 1.0
5111 -1.000000 -0.334669 0.887996 102 102 102 1.0
5112 -1.000000 -0.515030 0.734744 102 102 102 1.0
5113 -0.122244 0.074148 0.009446 102 102 102 1.0
5114 0.002004 -0.434870 -0.189108 102 102 102 1.0
5115 0.703407 -0.062124 0.490922 102 102 102 1.0
5116 0.466934 -0.086172 0.210602 102 102 102 1.0
5117 -0.374750 -0.963928 -0.788720 102 102 102 1.0
5118 -0.370741 -0.490982 -0.103614 102 102 102 1.0
5119 0.474950 -0.575150 -0.105220 102 102 102 1.0
5120 0.791583 -0.887776 -0.161542 102 102 102 1.0
5121 -0.114228 -0.995992 -0.978952 102 102 102 1.0
5122 0.022044 -0.262525 -0.068433 102 102 102 1.0
5123 0.667335 0.426854 0.263131 102 102 102 1.0
5124 -0.799599 0.595190 0.285107 102 102 102 1.0
5125 -0.571142 0.326653 0.219501 102 102 102 1.0
5126 -0.767535 -0.523046 0.315533 102 102 102 1.0
5127 -0.583166 0.631263 -0.058409 102 102 102 1.0
5128 -0.322645 0.286573 0.021976 102 102 102 1.0
5129 0.126253 -0.010020 0.015839 102 102 102 1.0
5130 -0.118236 -0.122244 -0.000964 102 102 102 1.0
5131 0.655311 0.438878 0.236818 102 102 102 1.0
5132 -0.374750 0.030060 0.139534 102 102 102 1.0
5133 -0.651303 0.619238 0.040739 102 102 102 1.0
5134 -0.811623 -0.294589 0.571949 102 102 102 1.0
5135 -0.863727 -0.743487 0.193252 102 102 102 1.0
5136 -0.430862 -0.434870 -0.003470 102 102 102 1.0
5137 -0.494990 0.683367 -0.221975 102 102 102 1.0
5138 0.747495 -0.026052 0.558070 102 102 102 1.0
5139 -0.811623 -0.338677 0.544030 102 102 102 1.0
5140 0.539078 -0.394790 0.134746 102 102 102 1.0
5141 -0.951904 0.955912 -0.007647 102 102 102 1.0
5142 -0.242485 -0.519038 -0.210602 102 102 102 1.0
5143 0.430862 0.943888 -0.705282 102 102 102 1.0
5144 0.306613 -0.390782 -0.058699 102 102 102 1.0
5145 0.983968 0.571142 0.641989 102 102 102 1.0
5146 -0.515030 0.450902 0.061944 102 102 102 1.0
5147 0.879759 -0.731463 0.238939 102 102 102 1.0
5148 -0.206413 -0.406814 -0.122891 102 102 102 1.0
5149 -0.018036 -0.591182 -0.349171 102 102 102 1.0
5150 -0.286573 -0.178357 0.050313 102 102 102 1.0
5151 -0.651303 -0.414830 0.252111 102 102 102 1.0
5152 0.222445 -0.178357 0.017671 102 102 102 1.0
5153 0.250501 -0.470942 -0.159036 102 102 102 1.0
5154 -0.795591 -0.935872 -0.242891 102 102 102 1.0
5155 -0.831663 -0.282565 0.611821 102 102 102 1.0
5156 -0.623246 -0.807615 -0.263806 102 102 102 1.0
5157 -0.947896 0.278557 0.820912 102 102 102 1.0
5158 -0.767535 0.635271 0.185541 102 102 102 1.0
5159 -0.426854 -0.787575 -0.438071 102 102 102 1.0
5160 -0.935872 0.110220 0.863707 102 102 102 1.0
5161 -0.559118 0.034068 0.311453 102 102 102 1.0
5162 0.779559 0.266533 0.536673 102 102 102 1.0
5163 0.611222 0.983968 -0.594600 102 102 102 1.0
5164 0.282565 0.110220 0.067695 102 102 102 1.0
5165 -0.507014 -0.250501 0.194312 102 102 102 1.0
5166 -0.755511 0.102204 0.560351 102 102 102 1.0
5167 0.002004 -0.775551 -0.601475 102 102 102 1.0
5168 -0.102204 -0.627254 -0.383002 102 102 102 1.0
5169 0.358717 -0.262525 0.059759 102 102 102 1.0
5170 -0.963928 -0.310621 0.832671 102 102 102 1.0
5171 -0.535070 0.494990 0.041285 102 102 102 1.0
5172 0.831663 0.270541 0.618471 102 102 102 1.0
5173 -0.843687 -0.923848 -0.141686 102 102 102 1.0
