# 3D point list with one line of data per point:
#   POINT3D_ID, X, Y, Z, R, G, B, ERROR
1208 -0.049180 -0.377049 0.144585 102 102 102 1.0
1209 -0.016393 -0.377049 0.142435 102 102 102 1.0
1210 0.016393 -0.377049 0.142435 102 102 102 1.0
1211 0.049180 -0.377049 0.144585 102 102 102 1.0
1212 0.081967 -0.377049 0.148885 102 102 102 1.0
1213 0.114754 -0.377049 0.155335 102 102 102 1.0
1214 0.147541 -0.377049 0.163934 102 102 102 1.0
1215 0.180328 -0.377049 0.174684 102 102 102 1.0
1216 0.213115 -0.377049 0.187584 102 102 102 1.0
1217 0.245902 -0.377049 0.202634 102 102 102 1.0
1218 0.278689 -0.377049 0.219833 102 102 102 1.0
1219 0.311475 -0.377049 0.239183 102 102 102 1.0
1220 0.344262 -0.377049 0.260683 102 102 102 1.0
1221 0.377049 -0.377049 0.284332 102 102 102 1.0
1222 0.409836 -0.377049 0.310132 102 102 102 1.0
1223 0.442623 -0.377049 0.338081 102 102 102 1.0
1224 0.475410 -0.377049 0.368181 102 102 102 1.0
1225 0.508197 -0.377049 0.400430 102 102 102 1.0
1226 0.540984 -0.377049 0.434829 102 102 102 1.0
1227 0.573770 -0.377049 0.471379 102 102 102 1.0
1228 0.606557 -0.377049 0.510078 102 102 102 1.0
1229 0.639344 -0.377049 0.550927 102 102 102 1.0
1230 0.672131 -0.377049 0.593926 102 102 102 1.0
1231 0.704918 -0.377049 0.639076 102 102 102 1.0
1232 0.737705 -0.377049 0.686375 102 102 102 1.0
1233 0.770492 -0.377049 0.735824 102 102 102 1.0
1234 0.803279 -0.377049 0.787423 102 102 102 1.0
1235 0.836066 -0.377049 0.841172 102 102 102 1.0
1236 0.868852 -0.377049 0.897071 102 102 102 1.0
1237 0.901639 -0.377049 0.955120 102 102 102 1.0
1238 0.934426 -0.377049 1.015319 102 102 102 1.0
1239 0.967213 -0.377049 1.077667 102 102 102 1.0
1240 1.000000 -0.377049 1.142166 102 102 102 1.0
1241 -1.000000 -0.344262 1.118517 102 102 102 1.0
1242 -0.967213 -0.344262 1.054018 102 102 102 1.0
1243 -0.934426 -0.344262 0.991669 102 102 102 1.0
1244 -0.901639 -0.344262 0.931470 102 102 102 1.0
1245 -0.868852 -0.344262 0.873421 102 102 102 1.0
1246 -0.836066 -0.344262 0.817522 102 102 102 1.0
1247 -0.803279 -0.344262 0.763773 102 102 102 1.0
1248 -0.770492 -0.344262 0.712174 102 102 102 1.0
1249 -0.737705 -0.344262 0.662725 102 102 102 1.0
1250 -0.704918 -0.344262 0.615426 102 102 102 1.0
1251 -0.672131 -0.344262 0.570277 102 102 102 1.0
1252 -0.639344 -0.344262 0.527278 102 102 102 1.0
1253 -0.606557 -0.344262 0.486428 102 102 102 1.0
1254 -0.573770 -0.344262 0.447729 102 102 102 1.0
1255 -0.540984 -0.344262 0.411180 102 102 102 1.0
1256 -0.508197 -0.344262 0.376780 102 102 102 1.0
1257 -0.475410 -0.344262 0.344531 102 102 102 1.0
1258 -0.442623 -0.344262 0.314432 102 102 102 1.0
1259 -0.409836 -0.344262 0.286482 102 102 102 1.0
1260 -0.377049 -0.344262 0.260683 102 102 102 1.0
1261 -0.344262 -0.344262 0.237033 102 102 102 1.0
1262 -0.311475 -0.344262 0.215533 102 102 102 1.0
1263 -0.278689 -0.344262 0.196184 102 102 102 1.0
1264 -0.245902 -0.344262 0.178984 102 102 102 1.0
1265 -0.213115 -0.344262 0.163934 102 102 102 1.0
1266 -0.180328 -0.344262 0.151035 102 102 102 1.0
1267 -0.147541 -0.344262 0.140285 102 102 102 1.0
1268 -0.114754 -0.344262 0.131685 102 102 102 1.0
1269 -0.081967 -0.344262 0.125235 102 102 102 1.0
1270 -0.049180 -0.344262 0.120935 102 102 102 1.0
1271 -0.016393 -0.344262 0.118785 102 102 102 1.0
1272 0.016393 -0.344262 0.118785 102 102 102 1.0
1273 0.049180 -0.344262 0.120935 102 102 102 1.0
1274 0.081967 -0.344262 0.125235 102 102 102 1.0
1275 0.114754 -0.344262 0.131685 102 102 102 1.0
1276 0.147541 -0.344262 0.140285 102 102 102 1.0
1277 0.180328 -0.344262 0.151035 102 102 102 1.0
1278 0.213115 -0.344262 0.163934 102 102 102 1.0
1279 0.245902 -0.344262 0.178984 102 102 102 1.0
1280 0.278689 -0.344262 0.196184 102 102 102 1.0
1281 0.311475 -0.344262 0.215533 102 102 102 1.0
1282 0.344262 -0.344262 0.237033 102 102 102 1.0
1283 0.377049 -0.344262 0.260683 102 102 102 1.0
1284 0.409836 -0.344262 0.286482 102 102 102 1.0
1285 0.442623 -0.344262 0.314432 102 102 102 1.0
1286 0.475410 -0.344262 0.344531 102 102 102 1.0
1287 0.508197 -0.344262 0.376780 102 102 102 1.0
1288 0.540984 -0.344262 0.411180 102 102 102 1.0
1289 0.573770 -0.344262 0.447729 102 102 102 1.0
1290 0.606557 -0.344262 0.486428 102 102 102 1.0
1291 0.639344 -0.344262 0.527278 102 102 102 1.0
1292 0.672131 -0.344262 0.570277 102 102 102 1.0
1293 0.704918 -0.344262 0.615426 102 102 102 1.0
1294 0.737705 -0.344262 0.662725 102 102 102 1.0
1295 0.770492 -0.344262 0.712174 102 102 102 1.0
1296 0.803279 -0.344262 0.763773 102 102 102 1.0
1297 0.836066 -0.344262 0.817522 102 102 102 1.0
1298 0.868852 -0.344262 0.873421 102 102 102 1.0
1299 0.901639 -0.344262 0.931470 102 102 102 1.0
1300 0.934426 -0.344262 0.991669 102 102 102 1.0
1301 0.967213 -0.344262 1.054018 102 102 102 1.0
1302 1.000000 -0.344262 1.118517 102 102 102 1.0
1303 -1.000000 -0.311475 1.097017 102 102 102 1.0
1304 -0.967213 -0.311475 1.032518 102 102 102 1.0
1305 -0.934426 -0.311475 0.970169 102 102 102 1.0
1306 -0.901639 -0.311475 0.909970 102 102 102 1.0
1307 -0.868852 -0.311475 0.851921 102 102 102 1.0
1308 -0.836066 -0.311475 0.796023 102 102 102 1.0
1309 -0.803279 -0.311475 0.742274 102 102 102 1.0
1310 -0.770492 -0.311475 0.690675 102 102 102 1.0
1311 -0.737705 -0.311475 0.641225 102 102 102 1.0
1312 -0.704918 -0.311475 0.593926 102 102 102 1.0
1313 -0.672131 -0.311475 0.548777 102 102 102 1.0
1314 -0.639344 -0.311475 0.505778 102 102 102 1.0
1315 -0.606557 -0.311475 0.464929 102 102 102 1.0
1316 -0.573770 -0.311475 0.426230 102 102 102 1.0
1317 -0.540984 -0.311475 0.389680 102 102 102 1.0
1318 -0.508197 -0.311475 0.355281 102 102 102 1.0
1319 -0.475410 -0.311475 0.323031 102 102 102 1.0
1320 -0.442623 -0.311475 0.292932 102 102 102 1.0
1321 -0.409836 -0.311475 0.264983 102 102 102 1.0
1322 -0.377049 -0.311475 0.239183 102 102 102 1.0
1323 -0.344262 -0.311475 0.215533 102 102 102 1.0
1324 -0.311475 -0.311475 0.194034 102 102 102 1.0
1325 -0.278689 -0.311475 0.174684 102 102 102 1.0
1326 -0.245902 -0.311475 0.157485 102 102 102 1.0
1327 -0.213115 -0.311475 0.142435 102 102 102 1.0
1328 -0.180328 -0.311475 0.129535 102 102 102 1.0
1329 -0.147541 -0.311475 0.118785 102 102 102 1.0
1330 -0.114754 -0.311475 0.110185 102 102 102 1.0
1331 -0.081967 -0.311475 0.103736 102 102 102 1.0
1332 -0.049180 -0.311475 0.099436 102 102 102 1.0
1333 -0.016393 -0.311475 0.097286 102 102 102 1.0
1334 0.016393 -0.311475 0.097286 102 102 102 1.0
1335 0.049180 -0.311475 0.099436 102 102 102 1.0
1336 0.081967 -0.311475 0.103736 102 102 102 1.0
1337 0.114754 -0.311475 0.110185 102 102 102 1.0
1338 0.147541 -0.311475 0.118785 102 102 102 1.0
1339 0.180328 -0.311475 0.129535 102 102 102 1.0
1340 0.213115 -0.311475 0.142435 102 102 102 1.0
1341 0.245902 -0.311475 0.157485 102 102 102 1.0
1342 0.278689 -0.311475 0.174684 102 102 102 1.0
1343 0.311475 -0.311475 0.194034 102 102 102 1.0
1344 0.344262 -0.311475 0.215533 102 102 102 1.0
1345 0.377049 -0.311475 0.239183 102 102 102 1.0
1346 0.409836 -0.311475 0.264983 102 102 102 1.0
1347 0.442623 -0.311475 0.292932 102 102 102 1.0
1348 0.475410 -0.311475 0.323031 102 102 102 1.0
1349 0.508197 -0.311475 0.355281 102 102 102 1.0
1350 0.540984 -0.311475 0.389680 102 102 102 1.0
1351 0.573770 -0.311475 0.426230 102 102 102 1.0
1352 0.606557 -0.311475 0.464929 102 102 102 1.0
1353 0.639344 -0.311475 0.505778 102 102 102 1.0
1354 0.672131 -0.311475 0.548777 102 102 102 1.0
1355 0.704918 -0.311475 0.593926 102 102 102 1.0
1356 0.737705 -0.311475 0.641225 102 102 102 1.0
1357 0.770492 -0.311475 0.690675 102 102 102 1.0
1358 0.803279 -0.311475 0.742274 102 102 102 1.0
1359 0.836066 -0.311475 0.796023 102 102 102 1.0
1360 0.868852 -0.311475 0.851921 102 102 102 1.0
1361 0.901639 -0.311475 0.909970 102 102 102 1.0
1362 0.934426 -0.311475 0.970169 102 102 102 1.0
1363 0.967213 -0.311475 1.032518 102 102 102 1.0
1364 1.000000 -0.311475 1.097017 102 102 102 1.0
1365 -1.000000 -0.278689 1.077667 102 102 102 1.0
1366 -0.967213 -0.278689 1.013168 102 102 102 1.0
1367 -0.934426 -0.278689 0.950820 102 102 102 1.0
1368 -0.901639 -0.278689 0.890621 102 102 102 1.0
1369 -0.868852 -0.278689 0.832572 102 102 102 1.0
1370 -0.836066 -0.278689 0.776673 102 102 102 1.0
1371 -0.803279 -0.278689 0.722924 102 102 102 1.0
1372 -0.770492 -0.278689 0.671325 102 102 102 1.0
1373 -0.737705 -0.278689 0.621876 102 102 102 1.0
1374 -0.704918 -0.278689 0.574577 102 102 102 1.0
1375 -0.672131 -0.278689 0.529428 102 102 102 1.0
1376 -0.639344 -0.278689 0.486428 102 102 102 1.0
1377 -0.606557 -0.278689 0.445579 102 102 102 1.0
1378 -0.573770 -0.278689 0.406880 102 102 102 1.0
1379 -0.540984 -0.278689 0.370331 102 102 102 1.0
1380 -0.508197 -0.278689 0.335931 102 102 102 1.0
1381 -0.475410 -0.278689 0.303682 102 102 102 1.0
1382 -0.442623 -0.278689 0.273582 102 102 102 1.0
1383 -0.409836 -0.278689 0.245633 102 102 102 1.0
1384 -0.377049 -0.278689 0.219833 102 102 102 1.0
1385 -0.344262 -0.278689 0.196184 102 102 102 1.0
1386 -0.311475 -0.278689 0.174684 102 102 102 1.0
1387 -0.278689 -0.278689 0.155335 102 102 102 1.0
1388 -0.245902 -0.278689 0.138135 102 102 102 1.0
1389 -0.213115 -0.278689 0.123085 102 102 102 1.0
1390 -0.180328 -0.278689 0.110185 102 102 102 1.0
1391 -0.147541 -0.278689 0.099436 102 102 102 1.0
1392 -0.114754 -0.278689 0.090836 102 102 102 1.0
1393 -0.081967 -0.278689 0.084386 102 102 102 1.0
1394 -0.049180 -0.278689 0.080086 102 102 102 1.0
1395 -0.016393 -0.278689 0.077936 102 102 102 1.0
1396 0.016393 -0.278689 0.077936 102 102 102 1.0
1397 0.049180 -0.278689 0.080086 102 102 102 1.0
1398 0.081967 -0.278689 0.084386 102 102 102 1.0
1399 0.114754 -0.278689 0.090836 102 102 102 1.0
1400 0.147541 -0.278689 0.099436 102 102 102 1.0
1401 0.180328 -0.278689 0.110185 102 102 102 1.0
1402 0.213115 -0.278689 0.123085 102 102 102 1.0
1403 0.245902 -0.278689 0.138135 102 102 102 1.0
1404 0.278689 -0.278689 0.155335 102 102 102 1.0
1405 0.311475 -0.278689 0.174684 102 102 102 1.0
1406 0.344262 -0.278689 0.196184 102 102 102 1.0
1407 0.377049 -0.278689 0.219833 102 102 102 1.0
1408 0.409836 -0.278689 0.245633 102 102 102 1.0
1409 0.442623 -0.278689 0.273582 102 102 102 1.0
1410 0.475410 -0.278689 0.303682 102 102 102 1.0
1411 0.508197 -0.278689 0.335931 102 102 102 1.0
1412 0.540984 -0.278689 0.370331 102 102 102 1.0
1413 0.573770 -0.278689 0.406880 102 102 102 1.0
1414 0.606557 -0.278689 0.445579 102 102 102 1.0
1415 0.639344 -0.278689 0.486428 102 102 102 1.0
1416 0.672131 -0.278689 0.529428 102 102 102 1.0
1417 0.704918 -0.278689 0.574577 102 102 102 1.0
1418 0.737705 -0.278689 0.621876 102 102 102 1.0
1419 0.770492 -0.278689 0.671325 102 102 102 1.0
1420 0.803279 -0.278689 0.722924 102 102 102 1.0
1421 0.836066 -0.278689 0.776673 102 102 102 1.0
1422 0.868852 -0.278689 0.832572 102 102 102 1.0
1423 0.901639 -0.278689 0.890621 102 102 102 1.0
1424 0.934426 -0.278689 0.950820 102 102 102 1.0
1425 0.967213 -0.278689 1.013168 102 102 102 1.0
1426 1.000000 -0.278689 1.077667 102 102 102 1.0
1427 -1.000000 -0.245902 1.060468 102 102 102 1.0
1428 -0.967213 -0.245902 0.995969 102 102 102 1.0
1429 -0.934426 -0.245902 0.933620 102 102 102 1.0
1430 -0.901639 -0.245902 0.873421 102 102 102 1.0
1431 -0.868852 -0.245902 0.815372 102 102 102 1.0
1432 -0.836066 -0.245902 0.759473 102 102 102 1.0
1433 -0.803279 -0.245902 0.705724 102 102 102 1.0
1434 -0.770492 -0.245902 0.654125 102 102 102 1.0
1435 -0.737705 -0.245902 0.604676 102 102 102 1.0
1436 -0.704918 -0.245902 0.557377 102 102 102 1.0
1437 -0.672131 -0.245902 0.512228 102 102 102 1.0
1438 -0.639344 -0.245902 0.469229 102 102 102 1.0
1439 -0.606557 -0.245902 0.428379 102 102 102 1.0
1440 -0.573770 -0.245902 0.389680 102 102 102 1.0
1441 -0.540984 -0.245902 0.353131 102 102 102 1.0
1442 -0.508197 -0.245902 0.318732 102 102 102 1.0
1443 -0.475410 -0.245902 0.286482 102 102 102 1.0
1444 -0.442623 -0.245902 0.256383 102 102 102 1.0
1445 -0.409836 -0.245902 0.228433 102 102 102 1.0
1446 -0.377049 -0.245902 0.202634 102 102 102 1.0
1447 -0.344262 -0.245902 0.178984 102 102 102 1.0
1448 -0.311475 -0.245902 0.157485 102 102 102 1.0
1449 -0.278689 -0.245902 0.138135 102 102 102 1.0
1450 -0.245902 -0.245902 0.120935 102 102 102 1.0
1451 -0.213115 -0.245902 0.105886 102 102 102 1.0
1452 -0.180328 -0.245902 0.092986 102 102 102 1.0
1453 -0.147541 -0.245902 0.082236 102 102 102 1.0
1454 -0.114754 -0.245902 0.073636 102 102 102 1.0
1455 -0.081967 -0.245902 0.067186 102 102 102 1.0
1456 -0.049180 -0.245902 0.062886 102 102 102 1.0
1457 -0.016393 -0.245902 0.060736 102 102 102 1.0
1458 0.016393 -0.245902 0.060736 102 102 102 1.0
1459 0.049180 -0.245902 0.062886 102 102 102 1.0
1460 0.081967 -0.245902 0.067186 102 102 102 1.0
1461 0.114754 -0.245902 0.073636 102 102 102 1.0
1462 0.147541 -0.245902 0.082236 102 102 102 1.0
1463 0.180328 -0.245902 0.092986 102 102 102 1.0
1464 0.213115 -0.245902 0.105886 102 102 102 1.0
1465 0.245902 -0.245902 0.120935 102 102 102 1.0
1466 0.278689 -0.245902 0.138135 102 102 102 1.0
1467 0.311475 -0.245902 0.157485 102 102 102 1.0
1468 0.344262 -0.245902 0.178984 102 102 102 1.0
1469 0.377049 -0.245902 0.202634 102 102 102 1.0
1470 0.409836 -0.245902 0.228433 102 102 102 1.0
1471 0.442623 -0.245902 0.256383 102 102 102 1.0
1472 0.475410 -0.245902 0.286482 102 102 102 1.0
1473 0.508197 -0.245902 0.318732 102 102 102 1.0
1474 0.540984 -0.245902 0.353131 102 102 102 1.0
1475 0.573770 -0.245902 0.389680 102 102 102 1.0
1476 0.606557 -0.245902 0.428379 102 102 102 1.0
1477 0.639344 -0.245902 0.469229 102 102 102 1.0
1478 0.672131 -0.245902 0.512228 102 102 102 1.0
1479 0.704918 -0.245902 0.557377 102 102 102 1.0
1480 0.737705 -0.245902 0.604676 102 102 102 1.0
1481 0.770492 -0.245902 0.654125 102 102 102 1.0
1482 0.803279 -0.245902 0.705724 102 102 102 1.0
1483 0.836066 -0.245902 0.759473 102 102 102 1.0
1484 0.868852 -0.245902 0.815372 102 102 102 1.0
1485 0.901639 -0.245902 0.873421 102 102 102 1.0
1486 0.934426 -0.245902 0.933620 102 102 102 1.0
1487 0.967213 -0.245902 0.995969 102 102 102 1.0
1488 1.000000 -0.245902 1.060468 102 102 102 1.0
1489 -1.000000 -0.213115 1.045418 102 102 102 1.0
1490 -0.967213 -0.213115 0.980919 102 102 102 1.0
1491 -0.934426 -0.213115 0.918570 102 102 102 1.0
1492 -0.901639 -0.213115 0.858371 102 102 102 1.0
1493 -0.868852 -0.213115 0.800322 102 102 102 1.0
1494 -0.836066 -0.213115 0.744424 102 102 102 1.0
1495 -0.803279 -0.213115 0.690675 102 102 102 1.0
1496 -0.770492 -0.213115 0.639076 102 102 102 1.0
1497 -0.737705 -0.213115 0.589626 102 102 102 1.0
1498 -0.704918 -0.213115 0.542327 102 102 102 1.0
1499 -0.672131 -0.213115 0.497178 102 102 102 1.0
1500 -0.639344 -0.213115 0.454179 102 102 102 1.0
1501 -0.606557 -0.213115 0.413330 102 102 102 1.0
1502 -0.573770 -0.213115 0.374630 102 102 102 1.0
1503 -0.540984 -0.213115 0.338081 102 102 102 1.0
1504 -0.508197 -0.213115 0.303682 102 102 102 1.0
1505 -0.475410 -0.213115 0.271432 102 102 102 1.0
1506 -0.442623 -0.213115 0.241333 102 102 102 1.0
1507 -0.409836 -0.213115 0.213383 102 102 102 1.0
1508 -0.377049 -0.213115 0.187584 102 102 102 1.0
1509 -0.344262 -0.213115 0.163934 102 102 102 1.0
1510 -0.311475 -0.213115 0.142435 102 102 102 1.0
1511 -0.278689 -0.213115 0.123085 102 102 102 1.0
1512 -0.245902 -0.213115 0.105886 102 102 102 1.0
1513 -0.213115 -0.213115 0.090836 102 102 102 1.0
1514 -0.180328 -0.213115 0.077936 102 102 102 1.0
1515 -0.147541 -0.213115 0.067186 102 102 102 1.0
1516 -0.114754 -0.213115 0.058586 102 102 102 1.0
1517 -0.081967 -0.213115 0.052137 102 102 102 1.0
1518 -0.049180 -0.213115 0.047837 102 102 102 1.0
1519 -0.016393 -0.213115 0.045687 102 102 102 1.0
1520 0.016393 -0.213115 0.045687 102 102 102 1.0
1521 0.049180 -0.213115 0.047837 102 102 102 1.0
1522 0.081967 -0.213115 0.052137 102 102 102 1.0
1523 0.114754 -0.213115 0.058586 102 102 102 1.0
1524 0.147541 -0.213115 0.067186 102 102 102 1.0
1525 0.180328 -0.213115 0.077936 102 102 102 1.0
1526 0.213115 -0.213115 0.090836 102 102 102 1.0
1527 0.245902 -0.213115 0.105886 102 102 102 1.0
1528 0.278689 -0.213115 0.123085 102 102 102 1.0
1529 0.311475 -0.213115 0.142435 102 102 102 1.0
1530 0.344262 -0.213115 0.163934 102 102 102 1.0
1531 0.377049 -0.213115 0.187584 102 102 102 1.0
1532 0.409836 -0.213115 0.213383 102 102 102 1.0
1533 0.442623 -0.213115 0.241333 102 102 102 1.0
1534 0.475410 -0.213115 0.271432 102 102 102 1.0
1535 0.508197 -0.213115 0.303682 102 102 102 1.0
1536 0.540984 -0.213115 0.338081 102 102 102 1.0
1537 0.573770 -0.213115 0.374630 102 102 102 1.0
1538 0.606557 -0.213115 0.413330 102 102 102 1.0
1539 0.639344 -0.213115 0.454179 102 102 102 1.0
1540 0.672131 -0.213115 0.497178 102 102 102 1.0
1541 0.704918 -0.213115 0.542327 102 102 102 1.0
1542 0.737705 -0.213115 0.589626 102 102 102 1.0
1543 0.770492 -0.213115 0.639076 102 102 102 1.0
1544 0.803279 -0.213115 0.690675 102 102 102 1.0
1545 0.836066 -0.213115 0.744424 102 102 102 1.0
1546 0.868852 -0.213115 0.800322 102 102 102 1.0
1547 0.901639 -0.213115 0.858371 102 102 102 1.0
1548 0.934426 -0.213115 0.918570 102 102 102 1.0
1549 0.967213 -0.213115 0.980919 102 102 102 1.0
1550 1.000000 -0.213115 1.045418 102 102 102 1.0
1551 -1.000000 -0.180328 1.032518 102 102 102 1.0
1552 -0.967213 -0.180328 0.968019 102 102 102 1.0
1553 -0.934426 -0.180328 0.905671 102 102 102 1.0
1554 -0.901639 -0.180328 0.845472 102 102 102 1.0
1555 -0.868852 -0.180328 0.787423 102 102 102 1.0
1556 -0.836066 -0.180328 0.731524 102 102 102 1.0
1557 -0.803279 -0.180328 0.677775 102 102 102 1.0
1558 -0.770492 -0.180328 0.626176 102 102 102 1.0
1559 -0.737705 -0.180328 0.576727 102 102 102 1.0
1560 -0.704918 -0.180328 0.529428 102 102 102 1.0
1561 -0.672131 -0.180328 0.484278 102 102 102 1.0
1562 -0.639344 -0.180328 0.441279 102 102 102 1.0
1563 -0.606557 -0.180328 0.400430 102 102 102 1.0
1564 -0.573770 -0.180328 0.361731 102 102 102 1.0
1565 -0.540984 -0.180328 0.325181 102 102 102 1.0
1566 -0.508197 -0.180328 0.290782 102 102 102 1.0
1567 -0.475410 -0.180328 0.258533 102 102 102 1.0
1568 -0.442623 -0.180328 0.228433 102 102 102 1.0
1569 -0.409836 -0.180328 0.200484 102 102 102 1.0
1570 -0.377049 -0.180328 0.174684 102 102 102 1.0
1571 -0.344262 -0.180328 0.151035 102 102 102 1.0
1572 -0.311475 -0.180328 0.129535 102 102 102 1.0
1573 -0.278689 -0.180328 0.110185 102 102 102 1.0
1574 -0.245902 -0.180328 0.092986 102 102 102 1.0
1575 -0.213115 -0.180328 0.077936 102 102 102 1.0
1576 -0.180328 -0.180328 0.065036 102 102 102 1.0
1577 -0.147541 -0.180328 0.054286 102 102 102 1.0
1578 -0.114754 -0.180328 0.045687 102 102 102 1.0
1579 -0.081967 -0.180328 0.039237 102 102 102 1.0
1580 -0.049180 -0.180328 0.034937 102 102 102 1.0
1581 -0.016393 -0.180328 0.032787 102 102 102 1.0
1582 0.016393 -0.180328 0.032787 102 102 102 1.0
1583 0.049180 -0.180328 0.034937 102 102 102 1.0
1584 0.081967 -0.180328 0.039237 102 102 102 1.0
1585 0.114754 -0.180328 0.045687 102 102 102 1.0
1586 0.147541 -0.180328 0.054286 102 102 102 1.0
1587 0.180328 -0.180328 0.065036 102 102 102 1.0
1588 0.213115 -0.180328 0.077936 102 102 102 1.0
1589 0.245902 -0.180328 0.092986 102 102 102 1.0
1590 0.278689 -0.180328 0.110185 102 102 102 1.0
1591 0.311475 -0.180328 0.129535 102 102 102 1.0
1592 0.344262 -0.180328 0.151035 102 102 102 1.0
1593 0.377049 -0.180328 0.174684 102 102 102 1.0
1594 0.409836 -0.180328 0.200484 102 102 102 1.0
1595 0.442623 -0.180328 0.228433 102 102 102 1.0
1596 0.475410 -0.180328 0.258533 102 102 102 1.0
1597 0.508197 -0.180328 0.290782 102 102 102 1.0
1598 0.540984 -0.180328 0.325181 102 102 102 1.0
1599 0.573770 -0.180328 0.361731 102 102 102 1.0
1600 0.606557 -0.180328 0.400430 102 102 102 1.0
1601 0.639344 -0.180328 0.441279 102 102 102 1.0
1602 0.672131 -0.180328 0.484278 102 102 102 1.0
1603 0.704918 -0.180328 0.529428 102 102 102 1.0
1604 0.737705 -0.180328 0.576727 102 102 102 1.0
1605 0.770492 -0.180328 0.626176 102 102 102 1.0
1606 0.803279 -0.180328 0.677775 102 102 102 1.0
1607 0.836066 -0.180328 0.731524 102 102 102 1.0
1608 0.868852 -0.180328 0.787423 102 102 102 1.0
1609 0.901639 -0.180328 0.845472 102 102 102 1.0
1610 0.934426 -0.180328 0.905671 102 102 102 1.0
1611 0.967213 -0.180328 0.968019 102 102 102 1.0
1612 1.000000 -0.180328 1.032518 102 102 102 1.0
1613 -1.000000 -0.147541 1.021768 102 102 102 1.0
1614 -0.967213 -0.147541 0.957270 102 102 102 1.0
1615 -0.934426 -0.147541 0.894921 102 102 102 1.0
1616 -0.901639 -0.147541 0.834722 102 102 102 1.0
1617 -0.868852 -0.147541 0.776673 102 102 102 1.0
1618 -0.836066 -0.147541 0.720774 102 102 102 1.0
1619 -0.803279 -0.147541 0.667025 102 102 102 1.0
1620 -0.770492 -0.147541 0.615426 102 102 102 1.0
1621 -0.737705 -0.147541 0.565977 102 102 102 1.0
1622 -0.704918 -0.147541 0.518678 102 102 102 1.0
1623 -0.672131 -0.147541 0.473529 102 102 102 1.0
1624 -0.639344 -0.147541 0.430529 102 102 102 1.0
1625 -0.606557 -0.147541 0.389680 102 102 102 1.0
1626 -0.573770 -0.147541 0.350981 102 102 102 1.0
1627 -0.540984 -0.147541 0.314432 102 102 102 1.0
1628 -0.508197 -0.147541 0.280032 102 102 102 1.0
1629 -0.475410 -0.147541 0.247783 102 102 102 1.0
1630 -0.442623 -0.147541 0.217683 102 102 102 1.0
1631 -0.409836 -0.147541 0.189734 102 102 102 1.0
1632 -0.377049 -0.147541 0.163934 102 102 102 1.0
1633 -0.344262 -0.147541 0.140285 102 102 102 1.0
1634 -0.311475 -0.147541 0.118785 102 102 102 1.0
1635 -0.278689 -0.147541 0.099436 102 102 102 1.0
1636 -0.245902 -0.147541 0.082236 102 102 102 1.0
1637 -0.213115 -0.147541 0.067186 102 102 102 1.0
1638 -0.180328 -0.147541 0.054286 102 102 102 1.0
1639 -0.147541 -0.147541 0.043537 102 102 102 1.0
1640 -0.114754 -0.147541 0.034937 102 102 102 1.0
1641 -0.081967 -0.147541 0.028487 102 102 102 1.0
1642 -0.049180 -0.147541 0.024187 102 102 102 1.0
1643 -0.016393 -0.147541 0.022037 102 102 102 1.0
1644 0.016393 -0.147541 0.022037 102 102 102 1.0
1645 0.049180 -0.147541 0.024187 102 102 102 1.0
1646 0.081967 -0.147541 0.028487 102 102 102 1.0
1647 0.114754 -0.147541 0.034937 102 102 102 1.0
1648 0.147541 -0.147541 0.043537 102 102 102 1.0
1649 0.180328 -0.147541 0.054286 102 102 102 1.0
1650 0.213115 -0.147541 0.067186 102 102 102 1.0
1651 0.245902 -0.147541 0.082236 102 102 102 1.0
1652 0.278689 -0.147541 0.099436 102 102 102 1.0
1653 0.311475 -0.147541 0.118785 102 102 102 1.0
1654 0.344262 -0.147541 0.140285 102 102 102 1.0
1655 0.377049 -0.147541 0.163934 102 102 102 1.0
1656 0.409836 -0.147541 0.189734 102 102 102 1.0
1657 0.442623 -0.147541 0.217683 102 102 102 1.0
1658 0.475410 -0.147541 0.247783 102 102 102 1.0
1659 0.508197 -0.147541 0.280032 102 102 102 1.0
1660 0.540984 -0.147541 0.314432 102 102 102 1.0
1661 0.573770 -0.147541 0.350981 102 102 102 1.0
1662 0.606557 -0.147541 0.389680 102 102 102 1.0
1663 0.639344 -0.147541 0.430529 102 102 102 1.0
1664 0.672131 -0.147541 0.473529 102 102 102 1.0
1665 0.704918 -0.147541 0.518678 102 102 102 1.0
1666 0.737705 -0.147541 0.565977 102 102 102 1.0
1667 0.770492 -0.147541 0.615426 102 102 102 1.0
1668 0.803279 -0.147541 0.667025 102 102 102 1.0
1669 0.836066 -0.147541 0.720774 102 102 102 1.0
1670 0.868852 -0.147541 0.776673 102 102 102 1.0
1671 0.901639 -0.147541 0.834722 102 102 102 1.0
1672 0.934426 -0.147541 0.894921 102 102 102 1.0
1673 0.967213 -0.147541 0.957270 102 102 102 1.0
1674 1.000000 -0.147541 1.021768 102 102 102 1.0
1675 -1.000000 -0.114754 1.013168 102 102 102 1.0
1676 -0.967213 -0.114754 0.948670 102 102 102 1.0
1677 -0.934426 -0.114754 0.886321 102 102 102 1.0
1678 -0.901639 -0.114754 0.826122 102 102 102 1.0
1679 -0.868852 -0.114754 0.768073 102 102 102 1.0
1680 -0.836066 -0.114754 0.712174 102 102 102 1.0
1681 -0.803279 -0.114754 0.658425 102 102 102 1.0
1682 -0.770492 -0.114754 0.606826 102 102 102 1.0
1683 -0.737705 -0.114754 0.557377 102 102 102 1.0
1684 -0.704918 -0.114754 0.510078 102 102 102 1.0
1685 -0.672131 -0.114754 0.464929 102 102 102 1.0
1686 -0.639344 -0.114754 0.421930 102 102 102 1.0
1687 -0.606557 -0.114754 0.381080 102 102 102 1.0
1688 -0.573770 -0.114754 0.342381 102 102 102 1.0
1689 -0.540984 -0.114754 0.305832 102 102 102 1.0
1690 -0.508197 -0.114754 0.271432 102 102 102 1.0
1691 -0.475410 -0.114754 0.239183 102 102 102 1.0
1692 -0.442623 -0.114754 0.209084 102 102 102 1.0
1693 -0.409836 -0.114754 0.181134 102 102 102 1.0
1694 -0.377049 -0.114754 0.155335 102 102 102 1.0
1695 -0.344262 -0.114754 0.131685 102 102 102 1.0
1696 -0.311475 -0.114754 0.110185 102 102 102 1.0
1697 -0.278689 -0.114754 0.090836 102 102 102 1.0
1698 -0.245902 -0.114754 0.073636 102 102 102 1.0
1699 -0.213115 -0.114754 0.058586 102 102 102 1.0
1700 -0.180328 -0.114754 0.045687 102 102 102 1.0
1701 -0.147541 -0.114754 0.034937 102 102 102 1.0
1702 -0.114754 -0.114754 0.026337 102 102 102 1.0
1703 -0.081967 -0.114754 0.019887 102 102 102 1.0
1704 -0.049180 -0.114754 0.015587 102 102 102 1.0
1705 -0.016393 -0.114754 0.013437 102 102 102 1.0
1706 0.016393 -0.114754 0.013437 102 102 102 1.0
1707 0.049180 -0.114754 0.015587 102 102 102 1.0
1708 0.081967 -0.114754 0.019887 102 102 102 1.0
1709 0.114754 -0.114754 0.026337 102 102 102 1.0
1710 0.147541 -0.114754 0.034937 102 102 102 1.0
1711 0.180328 -0.114754 0.045687 102 102 102 1.0
1712 0.213115 -0.114754 0.058586 102 102 102 1.0
1713 0.245902 -0.114754 0.073636 102 102 102 1.0
1714 0.278689 -0.114754 0.090836 102 102 102 1.0
1715 0.311475 -0.114754 0.110185 102 102 102 1.0
1716 0.344262 -0.114754 0.131685 102 102 102 1.0
1717 0.377049 -0.114754 0.155335 102 102 102 1.0
1718 0.409836 -0.114754 0.181134 102 102 102 1.0
1719 0.442623 -0.114754 0.209084 102 102 102 1.0
1720 0.475410 -0.114754 0.239183 102 102 102 1.0
1721 0.508197 -0.114754 0.271432 102 102 102 1.0
1722 0.540984 -0.114754 0.305832 102 102 102 1.0
1723 0.573770 -0.114754 0.342381 102 102 102 1.0
1724 0.606557 -0.114754 0.381080 102 102 102 1.0
1725 0.639344 -0.114754 0.421930 102 102 102 1.0
1726 0.672131 -0.114754 0.464929 102 102 102 1.0
1727 0.704918 -0.114754 0.510078 102 102 102 1.0
1728 0.737705 -0.114754 0.557377 102 102 102 1.0
1729 0.770492 -0.114754 0.606826 102 102 102 1.0
1730 0.803279 -0.114754 0.658425 102 102 102 1.0
1731 0.836066 -0.114754 0.712174 102 102 102 1.0
1732 0.868852 -0.114754 0.768073 102 102 102 1.0
1733 0.901639 -0.114754 0.826122 102 102 102 1.0
1734 0.934426 -0.114754 0.886321 102 102 102 1.0
1735 0.967213 -0.114754 0.948670 102 102 102 1.0
1736 1.000000 -0.114754 1.013168 102 102 102 1.0
1737 -1.000000 -0.081967 1.006719 102 102 102 1.0
1738 -0.967213 -0.081967 0.942220 102 102 102 1.0
1739 -0.934426 -0.081967 0.879871 102 102 102 1.0
1740 -0.901639 -0.081967 0.819672 102 102 102 1.0
1741 -0.868852 -0.081967 0.761623 102 102 102 1.0
1742 -0.836066 -0.081967 0.705724 102 102 102 1.0
1743 -0.803279 -0.081967 0.651975 102 102 102 1.0
1744 -0.770492 -0.081967 0.600376 102 102 102 1.0
1745 -0.737705 -0.081967 0.550927 102 102 102 1.0
1746 -0.704918 -0.081967 0.503628 102 102 102 1.0
1747 -0.672131 -0.081967 0.458479 102 102 102 1.0
1748 -0.639344 -0.081967 0.415480 102 102 102 1.0
1749 -0.606557 -0.081967 0.374630 102 102 102 1.0
1750 -0.573770 -0.081967 0.335931 102 102 102 1.0
1751 -0.540984 -0.081967 0.299382 102 102 102 1.0
1752 -0.508197 -0.081967 0.264983 102 102 102 1.0
1753 -0.475410 -0.081967 0.232733 102 102 102 1.0
1754 -0.442623 -0.081967 0.202634 102 102 102 1.0
1755 -0.409836 -0.081967 0.174684 102 102 102 1.0
1756 -0.377049 -0.081967 0.148885 102 102 102 1.0
1757 -0.344262 -0.081967 0.125235 102 102 102 1.0
1758 -0.311475 -0.081967 0.103736 102 102 102 1.0
1759 -0.278689 -0.081967 0.084386 102 102 102 1.0
1760 -0.245902 -0.081967 0.067186 102 102 102 1.0
1761 -0.213115 -0.081967 0.052137 102 102 102 1.0
1762 -0.180328 -0.081967 0.039237 102 102 102 1.0
1763 -0.147541 -0.081967 0.028487 102 102 102 1.0
1764 -0.114754 -0.081967 0.019887 102 102 102 1.0
1765 -0.081967 -0.081967 0.013437 102 102 102 1.0
1766 -0.049180 -0.081967 0.009137 102 102 102 1.0
1767 -0.016393 -0.081967 0.006987 102 102 102 1.0
1768 0.016393 -0.081967 0.006987 102 102 102 1.0
1769 0.049180 -0.081967 0.009137 102 102 102 1.0
1770 0.081967 -0.081967 0.013437 102 102 102 1.0
1771 0.114754 -0.081967 0.019887 102 102 102 1.0
1772 0.147541 -0.081967 0.028487 102 102 102 1.0
1773 0.180328 -0.081967 0.039237 102 102 102 1.0
1774 0.213115 -0.081967 0.052137 102 102 102 1.0
1775 0.245902 -0.081967 0.067186 102 102 102 1.0
1776 0.278689 -0.081967 0.084386 102 102 102 1.0
1777 0.311475 -0.081967 0.103736 102 102 102 1.0
1778 0.344262 -0.081967 0.125235 102 102 102 1.0
1779 0.377049 -0.081967 0.148885 102 102 102 1.0
1780 0.409836 -0.081967 0.174684 102 102 102 1.0
1781 0.442623 -0.081967 0.202634 102 102 102 1.0
1782 0.475410 -0.081967 0.232733 102 102 102 1.0
1783 0.508197 -0.081967 0.264983 102 102 102 1.0
1784 0.540984 -0.081967 0.299382 102 102 102 1.0
1785 0.573770 -0.081967 0.335931 102 102 102 1.0
1786 0.606557 -0.081967 0.374630 102 102 102 1.0
1787 0.639344 -0.081967 0.415480 102 102 102 1.0
1788 0.672131 -0.081967 0.458479 102 102 102 1.0
1789 0.704918 -0.081967 0.503628 102 102 102 1.0
1790 0.737705 -0.081967 0.550927 102 102 102 1.0
1791 0.770492 -0.081967 0.600376 102 102 102 1.0
1792 0.803279 -0.081967 0.651975 102 102 102 1.0
1793 0.836066 -0.081967 0.705724 102 102 102 1.0
1794 0.868852 -0.081967 0.761623 102 102 102 1.0
1795 0.901639 -0.081967 0.819672 102 102 102 1.0
1796 0.934426 -0.081967 0.879871 102 102 102 1.0
1797 0.967213 -0.081967 0.942220 102 102 102 1.0
1798 1.000000 -0.081967 1.006719 102 102 102 1.0
1799 -1.000000 -0.049180 1.002419 102 102 102 1.0
1800 -0.967213 -0.049180 0.937920 102 102 102 1.0
1801 -0.934426 -0.049180 0.875571 102 102 102 1.0
1802 -0.901639 -0.049180 0.815372 102 102 102 1.0
1803 -0.868852 -0.049180 0.757323 102 102 102 1.0
1804 -0.836066 -0.049180 0.701424 102 102 102 1.0
1805 -0.803279 -0.049180 0.647675 102 102 102 1.0
1806 -0.770492 -0.049180 0.596076 102 102 102 1.0
1807 -0.737705 -0.049180 0.546627 102 102 102 1.0
1808 -0.704918 -0.049180 0.499328 102 102 102 1.0
1809 -0.672131 -0.049180 0.454179 102 102 102 1.0
1810 -0.639344 -0.049180 0.411180 102 102 102 1.0
1811 -0.606557 -0.049180 0.370331 102 102 102 1.0
1812 -0.573770 -0.049180 0.331631 102 102 102 1.0
1813 -0.540984 -0.049180 0.295082 102 102 102 1.0
1814 -0.508197 -0.049180 0.260683 102 102 102 1.0
1815 -0.475410 -0.049180 0.228433 102 102 102 1.0
1816 -0.442623 -0.049180 0.198334 102 102 102 1.0
1817 -0.409836 -0.049180 0.170384 102 102 102 1.0
1818 -0.377049 -0.049180 0.144585 102 102 102 1.0
1819 -0.344262 -0.049180 0.120935 102 102 102 1.0
1820 -0.311475 -0.049180 0.099436 102 102 102 1.0
1821 -0.278689 -0.049180 0.080086 102 102 102 1.0
1822 -0.245902 -0.049180 0.062886 102 102 102 1.0
1823 -0.213115 -0.049180 0.047837 102 102 102 1.0
1824 -0.180328 -0.049180 0.034937 102 102 102 1.0
1825 -0.147541 -0.049180 0.024187 102 102 102 1.0
1826 -0.114754 -0.049180 0.015587 102 102 102 1.0
1827 -0.081967 -0.049180 0.009137 102 102 102 1.0
1828 -0.049180 -0.049180 0.004837 102 102 102 1.0
1829 -0.016393 -0.049180 0.002687 102 102 102 1.0
1830 0.016393 -0.049180 0.002687 102 102 102 1.0
1831 0.049180 -0.049180 0.004837 102 102 102 1.0
1832 0.081967 -0.049180 0.009137 102 102 102 1.0
1833 0.114754 -0.049180 0.015587 102 102 102 1.0
1834 0.147541 -0.049180 0.024187 102 102 102 1.0
1835 0.180328 -0.049180 0.034937 102 102 102 1.0
1836 0.213115 -0.049180 0.047837 102 102 102 1.0
1837 0.245902 -0.049180 0.062886 102 102 102 1.0
1838 0.278689 -0.049180 0.080086 102 102 102 1.0
1839 0.311475 -0.049180 0.099436 102 102 102 1.0
1840 0.344262 -0.049180 0.120935 102 102 102 1.0
1841 0.377049 -0.049180 0.144585 102 102 102 1.0
1842 0.409836 -0.049180 0.170384 102 102 102 1.0
1843 0.442623 -0.049180 0.198334 102 102 102 1.0
1844 0.475410 -0.049180 0.228433 102 102 102 1.0
1845 0.508197 -0.049180 0.260683 102 102 102 1.0
1846 0.540984 -0.049180 0.295082 102 102 102 1.0
1847 0.573770 -0.049180 0.331631 102 102 102 1.0
1848 0.606557 -0.049180 0.370331 102 102 102 1.0
1849 0.639344 -0.049180 0.411180 102 102 102 1.0
1850 0.672131 -0.049180 0.454179 102 102 102 1.0
1851 0.704918 -0.049180 0.499328 102 102 102 1.0
1852 0.737705 -0.049180 0.546627 102 102 102 1.0
1853 0.770492 -0.049180 0.596076 102 102 102 1.0
1854 0.803279 -0.049180 0.647675 102 102 102 1.0
1855 0.836066 -0.049180 0.701424 102 102 102 1.0
1856 0.868852 -0.049180 0.757323 102 102 102 1.0
1857 0.901639 -0.049180 0.815372 102 102 102 1.0
1858 0.934426 -0.049180 0.875571 102 102 102 1.0
1859 0.967213 -0.049180 0.937920 102 102 102 1.0
1860 1.000000 -0.049180 1.002419 102 102 102 1.0
1861 -1.000000 -0.016393 1.000269 102 102 102 1.0
1862 -0.967213 -0.016393 0.935770 102 102 102 1.0
1863 -0.934426 -0.016393 0.873421 102 102 102 1.0
1864 -0.901639 -0.016393 0.813222 102 102 102 1.0
1865 -0.868852 -0.016393 0.755173 102 102 102 1.0
1866 -0.836066 -0.016393 0.699274 102 102 102 1.0
1867 -0.803279 -0.016393 0.645525 102 102 102 1.0
1868 -0.770492 -0.016393 0.593926 102 102 102 1.0
1869 -0.737705 -0.016393 0.544477 102 102 102 1.0
1870 -0.704918 -0.016393 0.497178 102 102 102 1.0
1871 -0.672131 -0.016393 0.452029 102 102 102 1.0
1872 -0.639344 -0.016393 0.409030 102 102 102 1.0
1873 -0.606557 -0.016393 0.368181 102 102 102 1.0
1874 -0.573770 -0.016393 0.329481 102 102 102 1.0
1875 -0.540984 -0.016393 0.292932 102 102 102 1.0
1876 -0.508197 -0.016393 0.258533 102 102 102 1.0
1877 -0.475410 -0.016393 0.226283 102 102 102 1.0
1878 -0.442623 -0.016393 0.196184 102 102 102 1.0
1879 -0.409836 -0.016393 0.168234 102 102 102 1.0
1880 -0.377049 -0.016393 0.142435 102 102 102 1.0
1881 -0.344262 -0.016393 0.118785 102 102 102 1.0
1882 -0.311475 -0.016393 0.097286 102 102 102 1.0
1883 -0.278689 -0.016393 0.077936 102 102 102 1.0
1884 -0.245902 -0.016393 0.060736 102 102 102 1.0
1885 -0.213115 -0.016393 0.045687 102 102 102 1.0
1886 -0.180328 -0.016393 0.032787 102 102 102 1.0
1887 -0.147541 -0.016393 0.022037 102 102 102 1.0
1888 -0.114754 -0.016393 0.013437 102 102 102 1.0
1889 -0.081967 -0.016393 0.006987 102 102 102 1.0
1890 -0.049180 -0.016393 0.002687 102 102 102 1.0
1891 -0.016393 -0.016393 0.000537 102 102 102 1.0
1892 0.016393 -0.016393 0.000537 102 102 102 1.0
1893 0.049180 -0.016393 0.002687 102 102 102 1.0
1894 0.081967 -0.016393 0.006987 102 102 102 1.0
1895 0.114754 -0.016393 0.013437 102 102 102 1.0
1896 0.147541 -0.016393 0.022037 102 102 102 1.0
1897 0.180328 -0.016393 0.032787 102 102 102 1.0
1898 0.213115 -0.016393 0.045687 102 102 102 1.0
1899 0.245902 -0.016393 0.060736 102 102 102 1.0
1900 0.278689 -0.016393 0.077936 102 102 102 1.0
1901 0.311475 -0.016393 0.097286 102 102 102 1.0
1902 0.344262 -0.016393 0.118785 102 102 102 1.0
1903 0.377049 -0.016393 0.142435 102 102 102 1.0
1904 0.409836 -0.016393 0.168234 102 102 102 1.0
1905 0.442623 -0.016393 0.196184 102 102 102 1.0
1906 0.475410 -0.016393 0.226283 102 102 102 1.0
1907 0.508197 -0.016393 0.258533 102 102 102 1.0
1908 0.540984 -0.016393 0.292932 102 102 102 1.0
1909 0.573770 -0.016393 0.329481 102 102 102 1.0
1910 0.606557 -0.016393 0.368181 102 102 102 1.0
1911 0.639344 -0.016393 0.409030 102 102 102 1.0
1912 0.672131 -0.016393 0.452029 102 102 102 1.0
1913 0.704918 -0.016393 0.497178 102 102 102 1.0
1914 0.737705 -0.016393 0.544477 102 102 102 1.0
1915 0.770492 -0.016393 0.593926 102 102 102 1.0
1916 0.803279 -0.016393 0.645525 102 102 102 1.0
1917 0.836066 -0.016393 0.699274 102 102 102 1.0
1918 0.868852 -0.016393 0.755173 102 102 102 1.0
1919 0.901639 -0.016393 0.813222 102 102 102 1.0
1920 0.934426 -0.016393 0.873421 102 102 102 1.0
1921 0.967213 -0.016393 0.935770 102 102 102 1.0
1922 1.000000 -0.016393 1.000269 102 102 102 1.0
1923 -1.000000 0.016393 1.000269 102 102 102 1.0
1924 -0.967213 0.016393 0.935770 102 102 102 1.0
1925 -0.934426 0.016393 0.873421 102 102 102 1.0
1926 -0.901639 0.016393 0.813222 102 102 102 1.0
1927 -0.868852 0.016393 0.755173 102 102 102 1.0
1928 -0.836066 0.016393 0.699274 102 102 102 1.0
1929 -0.803279 0.016393 0.645525 102 102 102 1.0
1930 -0.770492 0.016393 0.593926 102 102 102 1.0
1931 -0.737705 0.016393 0.544477 102 102 102 1.0
1932 -0.704918 0.016393 0.497178 102 102 102 1.0
1933 -0.672131 0.016393 0.452029 102 102 102 1.0
1934 -0.639344 0.016393 0.409030 102 102 102 1.0
1935 -0.606557 0.016393 0.368181 102 102 102 1.0
1936 -0.573770 0.016393 0.329481 102 102 102 1.0
1937 -0.540984 0.016393 0.292932 102 102 102 1.0
1938 -0.508197 0.016393 0.258533 102 102 102 1.0
1939 -0.475410 0.016393 0.226283 102 102 102 1.0
1940 -0.442623 0.016393 0.196184 102 102 102 1.0
1941 -0.409836 0.016393 0.168234 102 102 102 1.0
1942 -0.377049 0.016393 0.142435 102 102 102 1.0
1943 -0.344262 0.016393 0.118785 102 102 102 1.0
1944 -0.311475 0.016393 0.097286 102 102 102 1.0
1945 -0.278689 0.016393 0.077936 102 102 102 1.0
1946 -0.245902 0.016393 0.060736 102 102 102 1.0
1947 -0.213115 0.016393 0.045687 102 102 102 1.0
1948 -0.180328 0.016393 0.032787 102 102 102 1.0
1949 -0.147541 0.016393 0.022037 102 102 102 1.0
1950 -0.114754 0.016393 0.013437 102 102 102 1.0
1951 -0.081967 0.016393 0.006987 102 102 102 1.0
1952 -0.049180 0.016393 0.002687 102 102 102 1.0
1953 -0.016393 0.016393 0.000537 102 102 102 1.0
1954 0.016393 0.016393 0.000537 102 102 102 1.0
1955 0.049180 0.016393 0.002687 102 102 102 1.0
1956 0.081967 0.016393 0.006987 102 102 102 1.0
1957 0.114754 0.016393 0.013437 102 102 102 1.0
1958 0.147541 0.016393 0.022037 102 102 102 1.0
1959 0.180328 0.016393 0.032787 102 102 102 1.0
1960 0.213115 0.016393 0.045687 102 102 102 1.0
1961 0.245902 0.016393 0.060736 102 102 102 1.0
1962 0.278689 0.016393 0.077936 102 102 102 1.0
1963 0.311475 0.016393 0.097286 102 102 102 1.0
1964 0.344262 0.016393 0.118785 102 102 102 1.0
1965 0.377049 0.016393 0.142435 102 102 102 1.0
1966 0.409836 0.016393 0.168234 102 102 102 1.0
1967 0.442623 0.016393 0.196184 102 102 102 1.0
1968 0.475410 0.016393 0.226283 102 102 102 1.0
1969 0.508197 0.016393 0.258533 102 102 102 1.0
1970 0.540984 0.016393 0.292932 102 102 102 1.0
1971 0.573770 0.016393 0.329481 102 102 102 1.0
1972 0.606557 0.016393 0.368181 102 102 102 1.0
1973 0.639344 0.016393 0.409030 102 102 102 1.0
1974 0.672131 0.016393 0.452029 102 102 102 1.0
1975 0.704918 0.016393 0.497178 102 102 102 1.0
1976 0.737705 0.016393 0.544477 102 102 102 1.0
1977 0.770492 0.016393 0.593926 102 102 102 1.0
1978 0.803279 0.016393 0.645525 102 102 102 1.0
1979 0.836066 0.016393 0.699274 102 102 102 1.0
1980 0.868852 0.016393 0.755173 102 102 102 1.0
1981 0.901639 0.016393 0.813222 102 102 102 1.0
1982 0.934426 0.016393 0.873421 102 102 102 1.0
1983 0.967213 0.016393 0.935770 102 102 102 1.0
1984 1.000000 0.016393 1.000269 102 102 102 1.0
1985 -1.000000 0.049180 1.002419 102 102 102 1.0
1986 -0.967213 0.049180 0.937920 102 102 102 1.0
1987 -0.934426 0.049180 0.875571 102 102 102 1.0
1988 -0.901639 0.049180 0.815372 102 102 102 1.0
1989 -0.868852 0.049180 0.757323 102 102 102 1.0
1990 -0.836066 0.049180 0.701424 102 102 102 1.0
1991 -0.803279 0.049180 0.647675 102 102 102 1.0
1992 -0.770492 0.049180 0.596076 102 102 102 1.0
1993 -0.737705 0.049180 0.546627 102 102 102 1.0
1994 -0.704918 0.049180 0.499328 102 102 102 1.0
1995 -0.672131 0.049180 0.454179 102 102 102 1.0
1996 -0.639344 0.049180 0.411180 102 102 102 1.0
1997 -0.606557 0.049180 0.370331 102 102 102 1.0
1998 -0.573770 0.049180 0.331631 102 102 102 1.0
1999 -0.540984 0.049180 0.295082 102 102 102 1.0
2000 -0.508197 0.049180 0.260683 102 102 102 1.0
2001 -0.475410 0.049180 0.228433 102 102 102 1.0
2002 -0.442623 0.049180 0.198334 102 102 102 1.0
2003 -0.409836 0.049180 0.170384 102 102 102 1.0
2004 -0.377049 0.049180 0.144585 102 102 102 1.0
2005 -0.344262 0.049180 0.120935 102 102 102 1.0
2006 -0.311475 0.049180 0.099436 102 102 102 1.0
2007 -0.278689 0.049180 0.080086 102 102 102 1.0
2008 -0.245902 0.049180 0.062886 102 102 102 1.0
2009 -0.213115 0.049180 0.047837 102 102 102 1.0
2010 -0.180328 0.049180 0.034937 102 102 102 1.0
2011 -0.147541 0.049180 0.024187 102 102 102 1.0
2012 -0.114754 0.049180 0.015587 102 102 102 1.0
2013 -0.081967 0.049180 0.009137 102 102 102 1.0
2014 -0.049180 0.049180 0.004837 102 102 102 1.0
2015 -0.016393 0.049180 0.002687 102 102 102 1.0
2016 0.016393 0.049180 0.002687 102 102 102 1.0
2017 0.049180 0.049180 0.004837 102 102 102 1.0
2018 0.081967 0.049180 0.009137 102 102 102 1.0
2019 0.114754 0.049180 0.015587 102 102 102 1.0
2020 0.147541 0.049180 0.024187 102 102 102 1.0
2021 0.180328 0.049180 0.034937 102 102 102 1.0
2022 0.213115 0.049180 0.047837 102 102 102 1.0
2023 0.245902 0.049180 0.062886 102 102 102 1.0
2024 0.278689 0.049180 0.080086 102 102 102 1.0
2025 0.311475 0.049180 0.099436 102 102 102 1.0
2026 0.344262 0.049180 0.120935 102 102 102 1.0
2027 0.377049 0.049180 0.144585 102 102 102 1.0
2028 0.409836 0.049180 0.170384 102 102 102 1.0
2029 0.442623 0.049180 0.198334 102 102 102 1.0
2030 0.475410 0.049180 0.228433 102 102 102 1.0
2031 0.508197 0.049180 0.260683 102 102 102 1.0
2032 0.540984 0.049180 0.295082 102 102 102 1.0
2033 0.573770 0.049180 0.331631 102 102 102 1.0
2034 0.606557 0.049180 0.370331 102 102 102 1.0
2035 0.639344 0.049180 0.411180 102 102 102 1.0
2036 0.672131 0.049180 0.454179 102 102 102 1.0
2037 0.704918 0.049180 0.499328 102 102 102 1.0
2038 0.737705 0.049180 0.546627 102 102 102 1.0
2039 0.770492 0.049180 0.596076 102 102 102 1.0
2040 0.803279 0.049180 0.647675 102 102 102 1.0
2041 0.836066 0.049180 0.701424 102 102 102 1.0
2042 0.868852 0.049180 0.757323 102 102 102 1.0
2043 0.901639 0.049180 0.815372 102 102 102 1.0
2044 0.934426 0.049180 0.875571 102 102 102 1.0
2045 0.967213 0.049180 0.937920 102 102 102 1.0
2046 1.000000 0.049180 1.002419 102 102 102 1.0
2047 -1.000000 0.081967 1.006719 102 102 102 1.0
2048 -0.967213 0.081967 0.942220 102 102 102 1.0
2049 -0.934426 0.081967 0.879871 102 102 102 1.0
2050 -0.901639 0.081967 0.819672 102 102 102 1.0
2051 -0.868852 0.081967 0.761623 102 102 102 1.0
2052 -0.836066 0.081967 0.705724 102 102 102 1.0
2053 -0.803279 0.081967 0.651975 102 102 102 1.0
2054 -0.770492 0.081967 0.600376 102 102 102 1.0
2055 -0.737705 0.081967 0.550927 102 102 102 1.0
2056 -0.704918 0.081967 0.503628 102 102 102 1.0
2057 -0.672131 0.081967 0.458479 102 102 102 1.0
2058 -0.639344 0.081967 0.415480 102 102 102 1.0
2059 -0.606557 0.081967 0.374630 102 102 102 1.0
2060 -0.573770 0.081967 0.335931 102 102 102 1.0
2061 -0.540984 0.081967 0.299382 102 102 102 1.0
2062 -0.508197 0.081967 0.264983 102 102 102 1.0
2063 -0.475410 0.081967 0.232733 102 102 102 1.0
2064 -0.442623 0.081967 0.202634 102 102 102 1.0
2065 -0.409836 0.081967 0.174684 102 102 102 1.0
2066 -0.377049 0.081967 0.148885 102 102 102 1.0
2067 -0.344262 0.081967 0.125235 102 102 102 1.0
2068 -0.311475 0.081967 0.103736 102 102 102 1.0
2069 -0.278689 0.081967 0.084386 102 102 102 1.0
2070 -0.245902 0.081967 0.067186 102 102 102 1.0
2071 -0.213115 0.081967 0.052137 102 102 102 1.0
2072 -0.180328 0.081967 0.039237 102 102 102 1.0
2073 -0.147541 0.081967 0.028487 102 102 102 1.0
2074 -0.114754 0.081967 0.019887 102 102 102 1.0
2075 -0.081967 0.081967 0.013437 102 102 102 1.0
2076 -0.049180 0.081967 0.009137 102 102 102 1.0
2077 -0.016393 0.081967 0.006987 102 102 102 1.0
2078 0.016393 0.081967 0.006987 102 102 102 1.0
2079 0.049180 0.081967 0.009137 102 102 102 1.0
2080 0.081967 0.081967 0.013437 102 102 102 1.0
2081 0.114754 0.081967 0.019887 102 102 102 1.0
2082 0.147541 0.081967 0.028487 102 102 102 1.0
2083 0.180328 0.081967 0.039237 102 102 102 1.0
2084 0.213115 0.081967 0.052137 102 102 102 1.0
2085 0.245902 0.081967 0.067186 102 102 102 1.0
2086 0.278689 0.081967 0.084386 102 102 102 1.0
2087 0.311475 0.081967 0.103736 102 102 102 1.0
2088 0.344262 0.081967 0.125235 102 102 102 1.0
2089 0.377049 0.081967 0.148885 102 102 102 1.0
2090 0.409836 0.081967 0.174684 102 102 102 1.0
2091 0.442623 0.081967 0.202634 102 102 102 1.0
2092 0.475410 0.081967 0.232733 102 102 102 1.0
2093 0.508197 0.081967 0.264983 102 102 102 1.0
2094 0.540984 0.081967 0.299382 102 102 102 1.0
2095 0.573770 0.081967 0.335931 102 102 102 1.0
2096 0.606557 0.081967 0.374630 102 102 102 1.0
2097 0.639344 0.081967 0.415480 102 102 102 1.0
2098 0.672131 0.081967 0.458479 102 102 102 1.0
2099 0.704918 0.081967 0.503628 102 102 102 1.0
2100 0.737705 0.081967 0.550927 102 102 102 1.0
2101 0.770492 0.081967 0.600376 102 102 102 1.0
2102 0.803279 0.081967 0.651975 102 102 102 1.0
2103 0.836066 0.081967 0.705724 102 102 102 1.0
2104 0.868852 0.081967 0.761623 102 102 102 1.0
2105 0.901639 0.081967 0.819672 102 102 102 1.0
2106 0.934426 0.081967 0.879871 102 102 102 1.0
2107 0.967213 0.081967 0.942220 102 102 102 1.0
2108 1.000000 0.081967 1.006719 102 102 102 1.0
2109 -1.000000 0.114754 1.013168 102 102 102 1.0
2110 -0.967213 0.114754 0.948670 102 102 102 1.0
2111 -0.934426 0.114754 0.886321 102 102 102 1.0
2112 -0.901639 0.114754 0.826122 102 102 102 1.0
2113 -0.868852 0.114754 0.768073 102 102 102 1.0
2114 -0.836066 0.114754 0.712174 102 102 102 1.0
2115 -0.803279 0.114754 0.658425 102 102 102 1.0
2116 -0.770492 0.114754 0.606826 102 102 102 1.0
2117 -0.737705 0.114754 0.557377 102 102 102 1.0
2118 -0.704918 0.114754 0.510078 102 102 102 1.0
2119 -0.672131 0.114754 0.464929 102 102 102 1.0
2120 -0.639344 0.114754 0.421930 102 102 102 1.0
2121 -0.606557 0.114754 0.381080 102 102 102 1.0
2122 -0.573770 0.114754 0.342381 102 102 102 1.0
2123 -0.540984 0.114754 0.305832 102 102 102 1.0
2124 -0.508197 0.114754 0.271432 102 102 102 1.0
2125 -0.475410 0.114754 0.239183 102 102 102 1.0
2126 -0.442623 0.114754 0.209084 102 102 102 1.0
2127 -0.409836 0.114754 0.181134 102 102 102 1.0
2128 -0.377049 0.114754 0.155335 102 102 102 1.0
2129 -0.344262 0.114754 0.131685 102 102 102 1.0
2130 -0.311475 0.114754 0.110185 102 102 102 1.0
2131 -0.278689 0.114754 0.090836 102 102 102 1.0
2132 -0.245902 0.114754 0.073636 102 102 102 1.0
2133 -0.213115 0.114754 0.058586 102 102 102 1.0
2134 -0.180328 0.114754 0.045687 102 102 102 1.0
2135 -0.147541 0.114754 0.034937 102 102 102 1.0
2136 -0.114754 0.114754 0.026337 102 102 102 1.0
2137 -0.081967 0.114754 0.019887 102 102 102 1.0
2138 -0.049180 0.114754 0.015587 102 102 102 1.0
2139 -0.016393 0.114754 0.013437 102 102 102 1.0
2140 0.016393 0.114754 0.013437 102 102 102 1.0
2141 0.049180 0.114754 0.015587 102 102 102 1.0
2142 0.081967 0.114754 0.019887 102 102 102 1.0
2143 0.114754 0.114754 0.026337 102 102 102 1.0
2144 0.147541 0.114754 0.034937 102 102 102 1.0
2145 0.180328 0.114754 0.045687 102 102 102 1.0
2146 0.213115 0.114754 0.058586 102 102 102 1.0
2147 0.245902 0.114754 0.073636 102 102 102 1.0
2148 0.278689 0.114754 0.090836 102 102 102 1.0
2149 0.311475 0.114754 0.110185 102 102 102 1.0
2150 0.344262 0.114754 0.131685 102 102 102 1.0
2151 0.377049 0.114754 0.155335 102 102 102 1.0
2152 0.409836 0.114754 0.181134 102 102 102 1.0
2153 0.442623 0.114754 0.209084 102 102 102 1.0
2154 0.475410 0.114754 0.239183 102 102 102 1.0
2155 0.508197 0.114754 0.271432 102 102 102 1.0
2156 0.540984 0.114754 0.305832 102 102 102 1.0
2157 0.573770 0.114754 0.342381 102 102 102 1.0
2158 0.606557 0.114754 0.381080 102 102 102 1.0
2159 0.639344 0.114754 0.421930 102 102 102 1.0
2160 0.672131 0.114754 0.464929 102 102 102 1.0
2161 0.704918 0.114754 0.510078 102 102 102 1.0
2162 0.737705 0.114754 0.557377 102 102 102 1.0
2163 0.770492 0.114754 0.606826 102 102 102 1.0
2164 0.803279 0.114754 0.658425 102 102 102 1.0
2165 0.836066 0.114754 0.712174 102 102 102 1.0
2166 0.868852 0.114754 0.768073 102 102 102 1.0
2167 0.901639 0.114754 0.826122 102 102 102 1.0
2168 0.934426 0.114754 0.886321 102 102 102 1.0
2169 0.967213 0.114754 0.948670 102 102 102 1.0
2170 1.000000 0.114754 1.013168 102 102 102 1.0
2171 -1.000000 0.147541 1.021768 102 102 102 1.0
2172 -0.967213 0.147541 0.957270 102 102 102 1.0
2173 -0.934426 0.147541 0.894921 102 102 102 1.0
2174 -0.901639 0.147541 0.834722 102 102 102 1.0
2175 -0.868852 0.147541 0.776673 102 102 102 1.0
2176 -0.836066 0.147541 0.720774 102 102 102 1.0
2177 -0.803279 0.147541 0.667025 102 102 102 1.0
2178 -0.770492 0.147541 0.615426 102 102 102 1.0
2179 -0.737705 0.147541 0.565977 102 102 102 1.0
2180 -0.704918 0.147541 0.518678 102 102 102 1.0
