ply
format ascii 1.0
comment synthetic polynomial dataset
element vertex 1194
property float x
property float y
property float z
property uchar red
property uchar green
property uchar blue
end_header
0.046092 -0.639279 0.410802 102 102 102
-0.799599 0.250501 0.702110 102 102 102
0.639279 0.839679 1.113739 102 102 102
-0.038076 -0.947896 0.899956 102 102 102
-0.715431 -0.310621 0.608327 102 102 102
-0.174349 0.619238 0.413854 102 102 102
-0.374750 0.110220 0.152586 102 102 102
0.915832 0.863727 1.584773 102 102 102
-0.699399 0.743487 1.041932 102 102 102
-0.278557 -0.979960 1.037915 102 102 102
0.258517 0.470942 0.288617 102 102 102
-0.855711 0.234469 0.787218 102 102 102
0.923848 0.170341 0.882510 102 102 102
-0.839679 0.739479 1.251891 102 102 102
-0.615230 0.258517 0.445340 102 102 102
-0.771543 0.334669 0.707282 102 102 102
-0.815631 0.731463 1.200292 102 102 102
-0.579158 -0.014028 0.335621 102 102 102
0.747495 -0.599198 0.917787 102 102 102
-0.659319 -0.498998 0.683700 102 102 102
-0.010020 0.206413 0.042707 102 102 102
-0.046092 0.434870 0.191236 102 102 102
-0.474950 -0.026052 0.226256 102 102 102
-0.739479 -0.915832 1.385577 102 102 102
-0.831663 -0.354709 0.817483 102 102 102
-0.070140 -0.967936 0.941819 102 102 102
0.959920 -0.230461 0.974558 102 102 102
0.254509 0.350701 0.187766 102 102 102
0.955912 0.398798 1.072807 102 102 102
0.547094 0.631263 0.697804 102 102 102
-0.398798 0.266533 0.230079 102 102 102
-0.214429 0.851703 0.771378 102 102 102
0.490982 0.214429 0.287043 102 102 102
0.559118 -0.358717 0.441291 102 102 102
-0.591182 -0.378758 0.492954 102 102 102
0.394790 -0.126253 0.171799 102 102 102
0.234469 0.923848 0.908470 102 102 102
-0.102204 0.430862 0.196088 102 102 102
0.679359 -0.294589 0.548311 102 102 102
0.038076 -0.843687 0.713258 102 102 102
0.302605 -0.791583 0.718174 102 102 102
0.643287 0.022044 0.414304 102 102 102
0.763527 -0.486974 0.820117 102 102 102
-0.739479 0.843687 1.258638 102 102 102
-0.446894 0.482966 0.432970 102 102 102
-0.202405 -0.122244 0.055911 102 102 102
-0.623246 -0.278557 0.466030 102 102 102
-0.182365 -0.727455 0.562448 102 102 102
0.623246 0.631263 0.786929 102 102 102
0.631263 0.671343 0.849193 102 102 102
-0.350701 0.330661 0.232328 102 102 102
0.895792 0.687375 1.274927 102 102 102
0.042084 0.503006 0.254786 102 102 102
0.935872 0.615230 1.254364 102 102 102
0.563126 0.559118 0.629724 102 102 102
0.727455 0.835671 1.227537 102 102 102
0.919840 0.030060 0.847009 102 102 102
-0.551102 0.531062 0.585741 102 102 102
0.086172 -0.230461 0.060538 102 102 102
0.935872 0.014028 0.876053 102 102 102
0.819639 -0.418838 0.847234 102 102 102
-0.979960 -0.807615 1.612564 102 102 102
-0.186373 -0.198397 0.074096 102 102 102
0.719439 -0.527054 0.795378 102 102 102
0.106212 -0.386774 0.160875 102 102 102
-0.755511 -0.034068 0.571958 102 102 102
0.438878 0.735471 0.733531 102 102 102
-0.555110 0.847695 1.026735 102 102 102
0.743487 0.507014 0.809836 102 102 102
-0.270541 0.462926 0.287493 102 102 102
0.162325 0.551102 0.330063 102 102 102
-0.138277 0.462926 0.233421 102 102 102
0.939880 0.875751 1.650315 102 102 102
0.783567 -0.210421 0.658254 102 102 102
-0.070140 -0.959920 0.926366 102 102 102
0.498998 -0.711423 0.755121 102 102 102
-0.703407 -0.847695 1.213369 102 102 102
0.943888 -0.831663 1.582588 102 102 102
0.963928 -0.242485 0.987956 102 102 102
-0.358717 -0.663327 0.568680 102 102 102
0.202405 -0.222445 0.090449 102 102 102
0.286573 0.238477 0.138995 102 102 102
-0.895792 -0.595190 1.156694 102 102 102
0.799599 0.827655 1.324372 102 102 102
-0.006012 0.595190 0.354288 102 102 102
0.138277 0.603206 0.382978 102 102 102
-0.274549 0.334669 0.187381 102 102 102
-0.022044 0.158317 0.025550 102 102 102
0.450902 -0.627254 0.596761 102 102 102
0.775551 -0.178357 0.633291 102 102 102
-0.867735 -0.066132 0.757338 102 102 102
0.170341 0.054108 0.031944 102 102 102
0.735471 0.783567 1.154895 102 102 102
0.955912 0.038076 0.915217 102 102 102
-0.571142 0.947896 1.224710 102 102 102
-0.767535 -0.382766 0.735620 102 102 102
-0.406814 -0.651303 0.589692 102 102 102
0.246493 0.046092 0.062883 102 102 102
0.302605 -0.827655 0.776583 102 102 102
-0.747495 -0.214429 0.604729 102 102 102
-0.555110 -0.438878 0.500761 102 102 102
0.266533 -0.298597 0.160200 102 102 102
0.703407 0.266533 0.565821 102 102 102
0.639279 -0.843687 1.120485 102 102 102
0.322645 -0.310621 0.200586 102 102 102
0.274549 -0.887776 0.863523 102 102 102
-0.947896 -0.310621 0.994992 102 102 102
-0.551102 -0.434870 0.492825 102 102 102
-0.378758 0.058116 0.146835 102 102 102
-0.811623 -0.118236 0.672712 102 102 102
-0.082164 -0.406814 0.172248 102 102 102
-0.326653 -0.859719 0.845820 102 102 102
-0.238477 0.478958 0.286272 102 102 102
-0.174349 -0.855711 0.762640 102 102 102
0.218437 0.543086 0.342657 102 102 102
-0.767535 0.995992 1.581110 102 102 102
0.715431 -0.959920 1.433287 102 102 102
0.891784 -0.911824 1.626700 102 102 102
-0.242485 -0.763527 0.641773 102 102 102
0.134269 -0.571142 0.344232 102 102 102
-0.747495 -0.811623 1.217481 102 102 102
-0.462926 0.935872 1.090156 102 102 102
0.615230 0.278557 0.456103 102 102 102
0.458918 0.102204 0.221051 102 102 102
1.000000 -0.158317 1.025064 102 102 102
0.162325 -0.875751 0.793290 102 102 102
-0.739479 0.158317 0.571893 102 102 102
-0.679359 -0.539078 0.752134 102 102 102
-0.018036 0.723447 0.523701 102 102 102
0.070140 0.122244 0.019863 102 102 102
0.482966 -0.098196 0.242899 102 102 102
0.519038 -0.078156 0.275509 102 102 102
0.414830 -0.014028 0.172280 102 102 102
-0.290581 -0.723447 0.607813 102 102 102
0.523046 0.166333 0.301244 102 102 102
0.182365 0.555110 0.341404 102 102 102
-0.426854 0.398798 0.341244 102 102 102
0.767535 0.731463 1.124148 102 102 102
-0.354709 0.947896 1.024325 102 102 102
0.963928 0.759519 1.506026 102 102 102
0.454910 0.102204 0.217389 102 102 102
0.494990 -0.210421 0.289292 102 102 102
-0.186373 -0.995992 1.026735 102 102 102
0.238477 0.819639 0.728680 102 102 102
0.382766 0.639279 0.555187 102 102 102
-0.498998 0.058116 0.252376 102 102 102
0.675351 0.094188 0.464970 102 102 102
0.623246 -0.338677 0.503139 102 102 102
0.567134 -0.070140 0.326561 102 102 102
0.286573 0.907816 0.906253 102 102 102
-0.362725 -0.503006 0.384585 102 102 102
0.270541 -0.182365 0.106449 102 102 102
-0.567134 -0.406814 0.487139 102 102 102
-0.250501 -0.703407 0.557532 102 102 102
-0.635271 0.158317 0.428633 102 102 102
0.446894 0.751503 0.764471 102 102 102
0.274549 -0.122244 0.090321 102 102 102
0.354709 0.262525 0.194738 102 102 102
0.462926 0.695391 0.697869 102 102 102
0.603206 0.587174 0.708632 102 102 102
0.334669 0.354709 0.237822 102 102 102
-0.054108 0.406814 0.168425 102 102 102
-0.258517 0.635271 0.470400 102 102 102
0.266533 -0.058116 0.074417 102 102 102
0.226453 0.987976 1.027377 102 102 102
-0.258517 0.142285 0.087076 102 102 102
-0.819639 -0.515030 0.937065 102 102 102
-0.935872 0.426854 1.058060 102 102 102
-0.827655 0.795591 1.317979 102 102 102
0.867735 0.971944 1.697640 102 102 102
-0.883768 0.799599 1.420404 102 102 102
0.198397 -0.130261 0.056329 102 102 102
-0.326653 -0.691383 0.584713 102 102 102
0.394790 -0.310621 0.252344 102 102 102
-0.362725 -0.002004 0.131574 102 102 102
-0.667335 0.787575 1.065610 102 102 102
0.959920 0.671343 1.372147 102 102 102
-0.446894 -0.643287 0.613532 102 102 102
-0.038076 0.855711 0.733692 102 102 102
0.619238 -0.258517 0.450287 102 102 102
0.679359 0.847695 1.180116 102 102 102
-0.719439 0.030060 0.518496 102 102 102
-0.623246 -0.250501 0.451187 102 102 102
0.839679 0.450902 0.908374 102 102 102
0.098196 -0.887776 0.797788 102 102 102
-0.551102 -0.931864 1.172084 102 102 102
0.022044 0.907816 0.824615 102 102 102
0.835671 0.334669 0.810350 102 102 102
-0.222445 0.070140 0.054401 102 102 102
0.535070 -0.991984 1.270332 102 102 102
-0.943888 -0.210421 0.935201 102 102 102
-0.354709 -0.835671 0.824165 102 102 102
-0.482966 -0.811623 0.891988 102 102 102
0.679359 0.507014 0.718592 102 102 102
-0.775551 -0.835671 1.299826 102 102 102
-0.486974 -0.006012 0.237180 102 102 102
0.346693 0.879759 0.894173 102 102 102
0.595190 0.390782 0.506962 102 102 102
-0.070140 0.671343 0.455621 102 102 102
0.330661 0.951904 1.015458 102 102 102
0.995992 0.991984 1.976032 102 102 102
-0.150301 -0.194389 0.060377 102 102 102
0.486974 -0.122244 0.252087 102 102 102
0.947896 -0.194389 0.936293 102 102 102
0.250501 -0.298597 0.151911 102 102 102
-0.771543 0.539078 0.885884 102 102 102
-0.210421 0.707415 0.544713 102 102 102
0.038076 0.094188 0.010321 102 102 102
0.855711 -0.547094 1.031554 102 102 102
-0.871744 -0.054108 0.762864 102 102 102
-0.186373 0.202405 0.075703 102 102 102
0.010020 0.823647 0.678495 102 102 102
0.831663 -0.975952 1.644146 102 102 102
-0.066132 0.422846 0.183172 102 102 102
-0.382766 0.494990 0.391525 102 102 102
0.270541 -0.090180 0.081325 102 102 102
0.967936 -0.398798 1.095939 102 102 102
-0.779559 -0.430862 0.793354 102 102 102
0.759519 -0.619238 0.960325 102 102 102
-0.987976 -0.486974 1.213240 102 102 102
0.074148 -0.823647 0.683893 102 102 102
0.358717 -0.390782 0.281388 102 102 102
-0.547094 -0.699399 0.788471 102 102 102
0.807615 -0.575150 0.983040 102 102 102
0.194389 1.000000 1.037787 102 102 102
-0.138277 -0.314629 0.118112 102 102 102
0.270541 -0.603206 0.437050 102 102 102
0.198397 -0.478958 0.268762 102 102 102
-0.090180 -0.098196 0.017775 102 102 102
-0.671343 0.234469 0.505677 102 102 102
0.843687 -0.318637 0.813338 102 102 102
0.975952 0.378758 1.095939 102 102 102
-0.847695 0.903808 1.535456 102 102 102
0.174349 -0.410822 0.199172 102 102 102
0.010020 -0.635271 0.403669 102 102 102
-0.635271 0.747495 0.962317 102 102 102
-0.707415 0.266533 0.571476 102 102 102
-0.086172 0.230461 0.060538 102 102 102
0.679359 -0.398798 0.620568 102 102 102
-0.470942 -0.254509 0.286561 102 102 102
-0.422846 -0.262525 0.247718 102 102 102
-0.254509 -0.018036 0.065100 102 102 102
0.346693 -0.647295 0.539187 102 102 102
-0.967936 0.310621 1.033385 102 102 102
-0.162325 0.551102 0.330063 102 102 102
-0.783567 -0.507014 0.871041 102 102 102
-0.374750 0.470942 0.362223 102 102 102
0.671343 -0.338677 0.565403 102 102 102
-0.583166 0.410822 0.508857 102 102 102
-0.182365 -0.058116 0.036634 102 102 102
-0.014028 -0.290581 0.084634 102 102 102
-0.134269 0.210421 0.062305 102 102 102
0.735471 -0.611222 0.914510 102 102 102
-0.182365 0.515030 0.298513 102 102 102
0.394790 0.102204 0.166305 102 102 102
0.923848 0.867735 1.606459 102 102 102
0.515030 0.166333 0.292923 102 102 102
-0.671343 -0.595190 0.804953 102 102 102
-0.018036 0.102204 0.010771 102 102 102
-0.703407 -0.939880 1.378155 102 102 102
-0.342685 -0.603206 0.481291 102 102 102
-0.182365 -0.398798 0.192296 102 102 102
-0.102204 -0.194389 0.048233 102 102 102
0.350701 -0.595190 0.477243 102 102 102
-0.767535 -0.198397 0.628471 102 102 102
0.234469 -0.286573 0.137100 102 102 102
0.182365 -0.246493 0.094016 102 102 102
0.222445 -0.527054 0.327268 102 102 102
0.390782 0.843687 0.864519 102 102 102
-0.390782 -0.410822 0.321485 102 102 102
-0.078156 0.494990 0.251123 102 102 102
-0.779559 -0.258517 0.674543 102 102 102
-0.426854 0.555110 0.490351 102 102 102
0.927856 -0.879759 1.634893 102 102 102
0.262525 0.639279 0.477596 102 102 102
-0.126253 -0.442886 0.212087 102 102 102
0.334669 -0.531062 0.394031 102 102 102
0.771543 -0.058116 0.598656 102 102 102
0.947896 0.671343 1.349207 102 102 102
0.238477 0.655311 0.486303 102 102 102
-0.675351 0.771543 1.051377 102 102 102
0.370741 0.302605 0.229019 102 102 102
-0.611222 0.951904 1.279714 102 102 102
-0.519038 0.318637 0.370930 102 102 102
-0.559118 -1.000000 1.312613 102 102 102
0.062124 -0.735471 0.544777 102 102 102
0.943888 0.723447 1.414299 102 102 102
0.751503 -0.595190 0.919008 102 102 102
0.226453 -0.755511 0.622078 102 102 102
-0.262525 -0.398798 0.227959 102 102 102
0.639279 -0.434870 0.597789 102 102 102
-0.651303 0.346693 0.544391 102 102 102
0.515030 0.715431 0.777097 102 102 102
0.142285 0.955912 0.934012 102 102 102
-0.198397 -0.623246 0.427797 102 102 102
-0.482966 -0.402806 0.395508 102 102 102
0.082164 -0.963928 0.935908 102 102 102
0.058116 -0.466934 0.221405 102 102 102
-0.731463 -0.454910 0.741981 102 102 102
-0.130261 -0.843687 0.728776 102 102 102
0.226453 0.134269 0.069309 102 102 102
0.823647 -0.615230 1.056903 102 102 102
-0.839679 -0.691383 1.183072 102 102 102
-0.314629 -0.410822 0.267766 102 102 102
0.262525 -0.278557 0.146513 102 102 102
-0.623246 0.306613 0.482448 102 102 102
-0.791583 -0.182365 0.659861 102 102 102
0.763527 -0.490982 0.824037 102 102 102
0.799599 0.118236 0.653339 102 102 102
-0.667335 0.102204 0.455781 102 102 102
-0.362725 0.402806 0.293822 102 102 102
-0.218437 -0.791583 0.674319 102 102 102
0.591182 -0.863727 1.095522 102 102 102
0.599198 0.911824 1.190461 102 102 102
0.406814 0.086172 0.172923 102 102 102
-0.414830 0.414830 0.344167 102 102 102
0.563126 0.771543 0.912390 102 102 102
-0.635271 -0.595190 0.757820 102 102 102
-0.178357 0.771543 0.627090 102 102 102
0.166333 0.771543 0.622945 102 102 102
0.134269 -0.963928 0.947185 102 102 102
0.979960 -0.074148 0.965819 102 102 102
-0.595190 0.342685 0.471685 102 102 102
-0.823647 0.895792 1.480837 102 102 102
0.446894 -0.555110 0.507861 102 102 102
0.643287 -0.619238 0.797274 102 102 102
-0.883768 -0.595190 1.135297 102 102 102
0.250501 -0.963928 0.991908 102 102 102
-0.318637 0.887776 0.889675 102 102 102
0.018036 0.002004 0.000329 102 102 102
-0.751503 0.282565 0.644600 102 102 102
-0.843687 0.559118 1.024422 102 102 102
0.731463 -0.474950 0.760615 102 102 102
0.294589 -0.226453 0.138064 102 102 102
0.703407 -0.559118 0.807394 102 102 102
-0.755511 -0.422846 0.749595 102 102 102
0.202405 0.462926 0.255268 102 102 102
-0.246493 -0.959920 0.982205 102 102 102
0.318637 0.627254 0.494978 102 102 102
0.362725 -0.138277 0.150690 102 102 102
-0.975952 0.935872 1.828338 102 102 102
0.030060 -0.062124 0.004763 102 102 102
-0.374750 0.426854 0.322641 102 102 102
-0.126253 -0.330661 0.125277 102 102 102
0.070140 0.651303 0.429115 102 102 102
-0.887776 0.671343 1.238846 102 102 102
-0.839679 -0.827655 1.390075 102 102 102
0.671343 0.102204 0.461147 102 102 102
-0.571142 -0.531062 0.608230 102 102 102
-0.326653 -0.134269 0.124730 102 102 102
-0.046092 -0.811623 0.660857 102 102 102
-0.262525 0.490982 0.309983 102 102 102
-0.290581 -0.979960 1.044759 102 102 102
0.527054 -0.334669 0.389790 102 102 102
-0.807615 0.519038 0.921643 102 102 102
-0.583166 -0.150301 0.362673 102 102 102
-0.943888 -0.450902 1.094237 102 102 102
-0.314629 -0.262525 0.167911 102 102 102
-0.571142 0.126253 0.342143 102 102 102
0.006012 0.603206 0.363894 102 102 102
0.326653 -0.090180 0.114835 102 102 102
0.747495 0.030060 0.559652 102 102 102
0.723447 -0.130261 0.540343 102 102 102
0.298597 0.122244 0.104104 102 102 102
-0.731463 -0.547094 0.834350 102 102 102
-0.903808 -0.551102 1.120582 102 102 102
-0.098196 0.587174 0.354416 102 102 102
0.675351 0.338677 0.570801 102 102 102
0.270541 0.222445 0.122674 102 102 102
0.715431 -0.430862 0.697483 102 102 102
-0.643287 -0.258517 0.480649 102 102 102
0.310621 -0.150301 0.119076 102 102 102
0.206413 -0.731463 0.577644 102 102 102
-0.026052 -0.743487 0.553452 102 102 102
-0.350701 -0.098196 0.132634 102 102 102
0.883768 -0.326653 0.887747 102 102 102
-0.102204 -0.094188 0.019317 102 102 102
-0.931864 0.851703 1.593769 102 102 102
0.603206 -0.478958 0.593259 102 102 102
-0.775551 -0.358717 0.730158 102 102 102
0.851703 0.166333 0.753065 102 102 102
-0.795591 -0.843687 1.344774 102 102 102
-0.907816 0.591182 1.173626 102 102 102
0.875751 0.498998 1.015940 102 102 102
-0.675351 0.863727 1.202124 102 102 102
0.322645 -0.563126 0.421211 102 102 102
0.078156 0.531062 0.288135 102 102 102
0.903808 0.779559 1.424581 102 102 102
0.114228 -0.366733 0.147542 102 102 102
1.000000 0.691383 1.478010 102 102 102
-0.735471 0.018036 0.541243 102 102 102
-0.230461 0.887776 0.841258 102 102 102
0.494990 0.695391 0.728583 102 102 102
-0.410822 0.995992 1.160774 102 102 102
0.795591 -0.687375 1.105449 102 102 102
0.611222 0.114228 0.386641 102 102 102
-0.863727 -0.454910 0.952968 102 102 102
-0.643287 -0.066132 0.418191 102 102 102
0.406814 0.122244 0.180441 102 102 102
0.583166 -0.591182 0.689580 102 102 102
-0.458918 0.222445 0.260087 102 102 102
-0.494990 -0.835671 0.943362 102 102 102
-0.767535 -0.831663 1.280774 102 102 102
-0.679359 0.599198 0.820567 102 102 102
-0.322645 0.747495 0.662849 102 102 102
-0.458918 -0.547094 0.509918 102 102 102
0.486974 0.523046 0.510721 102 102 102
0.571142 0.551102 0.629917 102 102 102
0.262525 0.078156 0.075028 102 102 102
-0.202405 -0.194389 0.078755 102 102 102
-0.206413 0.386774 0.192200 102 102 102
-0.218437 -0.611222 0.421308 102 102 102
-0.819639 -0.410822 0.840583 102 102 102
-0.102204 0.110220 0.022594 102 102 102
0.306613 -0.350701 0.217003 102 102 102
-0.322645 0.126253 0.120040 102 102 102
0.711423 0.082164 0.512873 102 102 102
0.082164 0.162325 0.033100 102 102 102
-0.098196 -0.190381 0.045887 102 102 102
0.935872 0.154309 0.899667 102 102 102
-0.290581 0.771543 0.679716 102 102 102
0.138277 0.799599 0.658479 102 102 102
-0.342685 -0.106212 0.128714 102 102 102
0.450902 -0.322645 0.307412 102 102 102
0.859719 -0.374750 0.879555 102 102 102
-0.699399 0.366733 0.623652 102 102 102
-0.739479 0.146293 0.568231 102 102 102
-0.927856 -0.134269 0.878944 102 102 102
0.490982 -0.414830 0.413147 102 102 102
0.478958 -0.346693 0.349597 102 102 102
0.482966 0.186373 0.267991 102 102 102
-0.270541 -0.110220 0.085341 102 102 102
0.555110 0.334669 0.420151 102 102 102
-0.783567 -0.402806 0.776230 102 102 102
0.430862 0.018036 0.185967 102 102 102
0.382766 0.282565 0.226352 102 102 102
-0.503006 0.559118 0.565628 102 102 102
0.058116 0.951904 0.909498 102 102 102
0.659319 0.547094 0.734013 102 102 102
0.026052 -0.819639 0.672487 102 102 102
-0.743487 0.310621 0.649258 102 102 102
0.991984 0.322645 1.088132 102 102 102
0.567134 0.414830 0.493725 102 102 102
-0.386774 0.667335 0.594929 102 102 102
-0.042084 -0.242485 0.060570 102 102 102
0.186373 -0.022044 0.035221 102 102 102
0.306613 -0.098196 0.103654 102 102 102
-0.507014 0.683367 0.724053 102 102 102
0.210421 -0.346693 0.164473 102 102 102
-0.398798 0.366733 0.293533 102 102 102
-0.655311 0.442886 0.625580 102 102 102
0.683367 -0.454910 0.673933 102 102 102
0.222445 0.531062 0.331509 102 102 102
-0.615230 -0.066132 0.382882 102 102 102
0.370741 -0.579158 0.472874 102 102 102
-0.567134 -0.679359 0.783170 102 102 102
0.498998 0.939880 1.132373 102 102 102
-0.306613 0.723447 0.617387 102 102 102
-0.122244 0.915832 0.853691 102 102 102
-0.038076 0.627254 0.394898 102 102 102
-0.166333 0.919840 0.873772 102 102 102
0.138277 -0.531062 0.301147 102 102 102
-0.759519 0.567134 0.898510 102 102 102
-0.751503 -0.042084 0.566528 102 102 102
0.302605 -0.855711 0.823812 102 102 102
-0.486974 0.959920 1.158590 102 102 102
0.410822 0.555110 0.476922 102 102 102
0.619238 -0.923848 1.236951 102 102 102
-0.446894 0.418838 0.375139 102 102 102
0.791583 0.086172 0.634030 102 102 102
0.386774 -0.959920 1.071040 102 102 102
-0.194389 0.382766 0.184296 102 102 102
-0.663327 -0.979960 1.400324 102 102 102
-0.663327 -0.374750 0.580439 102 102 102
0.134269 0.026052 0.018707 102 102 102
-0.250501 0.282565 0.142594 102 102 102
-0.503006 0.819639 0.924824 102 102 102
-0.202405 0.478958 0.270368 102 102 102
0.002004 -0.675351 0.456103 102 102 102
-0.799599 -0.090180 0.647491 102 102 102
0.751503 -0.715431 1.076598 102 102 102
-0.671343 0.715431 0.962542 102 102 102
-0.879759 -0.246493 0.834736 102 102 102
0.927856 -0.515030 1.126172 102 102 102
0.174349 0.338677 0.145100 102 102 102
0.927856 0.567134 1.182557 102 102 102
-0.699399 -0.474950 0.714736 102 102 102
-0.342685 0.006012 0.117469 102 102 102
0.366733 0.963928 1.063650 102 102 102
0.326653 0.619238 0.490159 102 102 102
0.967936 0.290581 1.021337 102 102 102
-0.779559 0.815631 1.272967 102 102 102
-0.398798 0.398798 0.318079 102 102 102
0.767535 -0.627254 0.982558 102 102 102
-0.863727 -0.811623 1.404757 102 102 102
-0.667335 -0.178357 0.477147 102 102 102
-0.811623 -0.699399 1.147891 102 102 102
0.695391 -0.270541 0.556761 102 102 102
-0.230461 -0.575150 0.383910 102 102 102
0.763527 -0.122244 0.597917 102 102 102
-0.595190 0.611222 0.727844 102 102 102
-0.751503 -0.643287 0.978574 102 102 102
0.683367 -0.410822 0.635765 102 102 102
-0.759519 0.583166 0.916952 102 102 102
0.779559 -0.819639 1.279521 102 102 102
0.931864 0.006012 0.868406 102 102 102
-0.579158 0.406814 0.500922 102 102 102
-0.835671 -0.979960 1.658668 102 102 102
0.042084 0.539078 0.292376 102 102 102
0.595190 -0.699399 0.843410 102 102 102
0.663327 -0.426854 0.622206 102 102 102
0.278557 -0.186373 0.112329 102 102 102
-0.819639 -0.823647 1.350203 102 102 102
-0.631263 0.198397 0.437854 102 102 102
0.322645 0.563126 0.421211 102 102 102
0.571142 0.326653 0.432906 102 102 102
-0.775551 0.426854 0.783684 102 102 102
-0.723447 0.446894 0.723089 102 102 102
-0.014028 -0.699399 0.489355 102 102 102
-0.995992 0.298597 1.081160 102 102 102
-0.891784 -0.186373 0.830013 102 102 102
0.751503 0.322645 0.668857 102 102 102
-0.691383 0.807615 1.130252 102 102 102
0.090180 0.194389 0.045919 102 102 102
0.238477 -0.851703 0.782270 102 102 102
0.879759 0.086172 0.781402 102 102 102
-0.266533 -0.635271 0.474609 102 102 102
0.995992 0.378758 1.135457 102 102 102
-0.503006 -0.795591 0.885980 102 102 102
0.591182 0.575150 0.680294 102 102 102
0.795591 -0.374750 0.773403 102 102 102
0.006012 -0.859719 0.739154 102 102 102
-0.843687 -0.987976 1.687905 102 102 102
0.535070 0.494990 0.531315 102 102 102
-0.454910 0.250501 0.269694 102 102 102
-0.731463 -0.450902 0.738350 102 102 102
-0.114228 -0.050100 0.015558 102 102 102
-0.278557 -0.667335 0.522930 102 102 102
0.831663 -0.935872 1.567520 102 102 102
-0.695391 -0.434870 0.672680 102 102 102
-0.102204 -0.346693 0.130642 102 102 102
0.090180 0.110220 0.020281 102 102 102
-0.763527 -0.458918 0.793579 102 102 102
0.671343 -0.803607 1.096486 102 102 102
0.078156 -0.903808 0.822977 102 102 102
0.823647 -0.539078 0.969000 102 102 102
0.591182 -0.274549 0.424874 102 102 102
-0.799599 0.262525 0.708278 102 102 102
0.002004 0.342685 0.117437 102 102 102
-0.358717 -0.831663 0.820342 102 102 102
-0.338677 0.995992 1.106702 102 102 102
-0.747495 -0.519038 0.828149 102 102 102
-0.931864 -0.370741 1.005819 102 102 102
0.394790 0.663327 0.595861 102 102 102
-0.687375 -0.751503 1.037241 102 102 102
-0.983968 0.591182 1.317690 102 102 102
0.847695 -0.579158 1.054012 102 102 102
0.915832 0.378758 0.982205 102 102 102
-0.667335 0.214429 0.491315 102 102 102
-0.366733 0.466934 0.352521 102 102 102
-0.478958 0.382766 0.375910 102 102 102
-0.182365 -0.122244 0.048201 102 102 102
0.406814 0.102204 0.175943 102 102 102
0.046092 0.739479 0.548954 102 102 102
0.466934 0.711423 0.724150 102 102 102
-0.406814 -0.262525 0.234417 102 102 102
0.567134 -0.254509 0.386416 102 102 102
0.831663 -0.503006 0.944679 102 102 102
0.230461 -0.919840 0.899217 102 102 102
0.743487 -0.170341 0.581789 102 102 102
-0.715431 -0.627254 0.905290 102 102 102
0.018036 -0.198397 0.039687 102 102 102
0.422846 -0.511022 0.439942 102 102 102
0.751503 -0.382766 0.711266 102 102 102
0.559118 0.787575 0.932888 102 102 102
-0.599198 0.322645 0.463139 102 102 102
0.775551 -0.935872 1.477335 102 102 102
0.386774 0.819639 0.821402 102 102 102
0.687375 -0.587174 0.817258 102 102 102
0.086172 -0.362725 0.138995 102 102 102
-0.827655 -0.234469 0.739989 102 102 102
-0.671343 -0.034068 0.451862 102 102 102
0.943888 -0.799599 1.530283 102 102 102
0.486974 0.743487 0.789917 102 102 102
-0.915832 -0.338677 0.953450 102 102 102
0.567134 0.835671 1.019988 102 102 102
-0.871744 0.855711 1.492179 102 102 102
0.819639 -0.070140 0.676728 102 102 102
-0.807615 0.026052 0.652921 102 102 102
-0.663327 0.819639 1.111811 102 102 102
-0.971944 0.294589 1.031458 102 102 102
-0.446894 0.018036 0.200039 102 102 102
0.823647 0.042084 0.680166 102 102 102
0.210421 0.154309 0.068088 102 102 102
0.246493 0.158317 0.085823 102 102 102
-0.098196 0.402806 0.171895 102 102 102
-0.010020 -0.358717 0.128779 102 102 102
0.839679 -0.707415 1.205497 102 102 102
0.182365 -0.771543 0.628536 102 102 102
0.635271 -0.991984 1.387601 102 102 102
0.210421 0.398798 0.203316 102 102 102
0.274549 0.795591 0.708343 102 102 102
0.002004 -1.000000 1.000004 102 102 102
-0.807615 0.390782 0.804953 102 102 102
-0.767535 0.759519 1.165979 102 102 102
0.703407 0.827655 1.179794 102 102 102
0.306613 -0.887776 0.882157 102 102 102
-0.402806 -0.763527 0.745226 102 102 102
-0.667335 -0.843687 1.157144 102 102 102
-0.074148 -0.631263 0.403990 102 102 102
-0.406814 -0.210421 0.209774 102 102 102
0.899800 -0.643287 1.223457 102 102 102
-0.214429 0.911824 0.877402 102 102 102
-0.631263 -0.707415 0.898928 102 102 102
0.038076 -0.871744 0.761387 102 102 102
0.178357 0.254509 0.096586 102 102 102
0.503006 -0.138277 0.272135 102 102 102
0.046092 0.474950 0.227702 102 102 102
-0.338677 -0.086172 0.122128 102 102 102
0.354709 -0.971944 1.070494 102 102 102
-0.619238 0.691383 0.861466 102 102 102
0.122244 0.130261 0.031912 102 102 102
-0.667335 0.194389 0.483123 102 102 102
-0.991984 0.639279 1.392709 102 102 102
-0.014028 0.791583 0.626801 102 102 102
0.186373 -0.783567 0.648712 102 102 102
-0.182365 -0.603206 0.397115 102 102 102
-0.434870 -0.426854 0.371316 102 102 102
0.090180 0.086172 0.015558 102 102 102
-0.030060 -0.931864 0.869274 102 102 102
-0.142285 0.967936 0.957145 102 102 102
-0.603206 -0.907816 1.187987 102 102 102
0.779559 -0.879759 1.381689 102 102 102
0.867735 -0.919840 1.599070 102 102 102
0.442886 0.422846 0.374946 102 102 102
0.242485 -0.002004 0.058803 102 102 102
-0.334669 0.098196 0.121646 102 102 102
-0.002004 -0.607214 0.368713 102 102 102
-0.290581 0.214429 0.130417 102 102 102
0.927856 -0.951904 1.767037 102 102 102
-0.458918 0.066132 0.214979 102 102 102
-0.262525 0.747495 0.627668 102 102 102
0.370741 0.543086 0.432392 102 102 102
-0.386774 0.599198 0.508632 102 102 102
0.494990 0.791583 0.871619 102 102 102
-0.206413 0.579158 0.378031 102 102 102
-0.422846 0.551102 0.482512 102 102 102
0.515030 0.947896 1.163762 102 102 102
0.655311 -0.835671 1.127779 102 102 102
0.671343 0.579158 0.786125 102 102 102
0.703407 0.803607 1.140566 102 102 102
0.498998 -0.795591 0.881964 102 102 102
0.799599 0.426854 0.821563 102 102 102
0.907816 -0.414830 0.996213 102 102 102
-0.659319 -0.859719 1.173819 102 102 102
-0.402806 -0.342685 0.279686 102 102 102
-0.282565 0.214429 0.125823 102 102 102
0.206413 -0.158317 0.067670 102 102 102
-0.507014 0.066132 0.261437 102 102 102
-0.262525 0.851703 0.794318 102 102 102
0.555110 -0.278557 0.385741 102 102 102
-0.587174 -0.503006 0.597789 102 102 102
0.486974 0.843687 0.948952 102 102 102
0.607214 0.434870 0.557821 102 102 102
-0.547094 0.334669 0.411316 102 102 102
0.943888 -0.302605 0.982494 102 102 102
0.631263 0.130261 0.415460 102 102 102
-0.743487 -0.058116 0.556150 102 102 102
-0.759519 0.639279 0.985546 102 102 102
0.859719 0.306613 0.833129 102 102 102
-0.206413 -0.178357 0.074417 102 102 102
0.418838 -0.466934 0.393452 102 102 102
-0.523046 0.398798 0.432617 102 102 102
0.567134 -0.507014 0.578704 102 102 102
-0.899800 0.106212 0.820920 102 102 102
-0.234469 -0.915832 0.893723 102 102 102
0.691383 0.955912 1.391778 102 102 102
0.406814 -0.983968 1.133690 102 102 102
-0.018036 0.490982 0.241389 102 102 102
-0.955912 0.370741 1.051217 102 102 102
0.178357 0.687375 0.504295 102 102 102
0.543086 0.515030 0.560199 102 102 102
0.158317 -0.014028 0.025261 102 102 102
0.975952 0.875751 1.719423 102 102 102
0.663327 0.667335 0.885338 102 102 102
0.535070 -0.058116 0.289678 102 102 102
-0.771543 -0.022044 0.595765 102 102 102
0.014028 -0.675351 0.456295 102 102 102
-0.811623 0.843687 1.370541 102 102 102
-0.979960 -0.138277 0.979442 102 102 102
0.535070 0.058116 0.289678 102 102 102
-0.278557 0.026052 0.078273 102 102 102
-0.014028 0.679359 0.461725 102 102 102
-0.803607 0.398798 0.804824 102 102 102
-0.402806 -0.867735 0.915217 102 102 102
0.130261 -0.991984 1.001000 102 102 102
0.146293 -0.727455 0.550592 102 102 102
0.438878 -0.314629 0.291605 102 102 102
-0.058116 0.174349 0.033775 102 102 102
-1.000000 -0.334669 1.112004 102 102 102
-1.000000 -0.515030 1.265256 102 102 102
-0.122244 0.074148 0.020442 102 102 102
0.002004 -0.434870 0.189116 102 102 102
0.703407 -0.062124 0.498641 102 102 102
0.466934 -0.086172 0.225453 102 102 102
-0.374750 -0.963928 1.069594 102 102 102
-0.370741 -0.490982 0.378513 102 102 102
0.474950 -0.575150 0.556375 102 102 102
0.791583 -0.887776 1.414749 102 102 102
-0.114228 -0.995992 1.005048 102 102 102
0.022044 -0.262525 0.069405 102 102 102
0.667335 0.426854 0.627540 102 102 102
-0.799599 0.595190 0.993610 102 102 102
-0.571142 0.326653 0.432906 102 102 102
-0.767535 -0.523046 0.862687 102 102 102
-0.583166 0.631263 0.738575 102 102 102
-0.322645 0.286573 0.186224 102 102 102
0.126253 -0.010020 0.016040 102 102 102
-0.118236 -0.122244 0.028924 102 102 102
0.655311 0.438878 0.622046 102 102 102
-0.374750 0.030060 0.141341 102 102 102
-0.651303 0.619238 0.807651 102 102 102
-0.811623 -0.294589 0.745515 102 102 102
-0.863727 -0.743487 1.298798 102 102 102
-0.430862 -0.434870 0.374754 102 102 102
-0.494990 0.683367 0.712005 102 102 102
0.747495 -0.026052 0.559427 102 102 102
-0.811623 -0.338677 0.773435 102 102 102
0.539078 -0.394790 0.446464 102 102 102
-0.951904 0.955912 1.819888 102 102 102
-0.242485 -0.519038 0.328199 102 102 102
0.430862 0.943888 1.076566 102 102 102
0.306613 -0.390782 0.246722 102 102 102
0.983968 0.571142 1.294396 102 102 102
-0.515030 0.450902 0.468568 102 102 102
0.879759 -0.731463 1.309015 102 102 102
-0.206413 -0.406814 0.208104 102 102 102
-0.018036 -0.591182 0.349822 102 102 102
-0.286573 -0.178357 0.113935 102 102 102
-0.651303 -0.414830 0.596279 102 102 102
0.222445 -0.178357 0.081293 102 102 102
0.250501 -0.470942 0.284537 102 102 102
-0.795591 -0.935872 1.508821 102 102 102
-0.831663 -0.282565 0.771507 102 102 102
-0.623246 -0.807615 1.040679 102 102 102
-0.947896 0.278557 0.976101 102 102 102
-0.767535 0.635271 0.992679 102 102 102
-0.426854 -0.787575 0.802479 102 102 102
-0.935872 0.110220 0.888004 102 102 102
-0.559118 0.034068 0.313774 102 102 102
0.779559 0.266533 0.678752 102 102 102
0.611222 0.983968 1.341786 102 102 102
0.282565 0.110220 0.091992 102 102 102
-0.507014 -0.250501 0.319814 102 102 102
-0.755511 0.102204 0.581243 102 102 102
0.002004 -0.775551 0.601484 102 102 102
-0.102204 -0.627254 0.403894 102 102 102
0.358717 -0.262525 0.197598 102 102 102
-0.963928 -0.310621 1.025643 102 102 102
-0.535070 0.494990 0.531315 102 102 102
0.831663 0.270541 0.764856 102 102 102
-0.843687 -0.923848 1.565303 102 102 102
0.470942 -0.831663 0.913450 102 102 102
0.763527 0.086172 0.590399 102 102 102
-0.639279 -0.919840 1.254782 102 102 102
0.398798 -0.811623 0.817772 102 102 102
0.238477 -0.130261 0.073839 102 102 102
0.294589 -1.000000 1.086783 102 102 102
0.703407 0.963928 1.423938 102 102 102
-0.631263 0.158317 0.423557 102 102 102
0.739479 0.246493 0.607588 102 102 102
0.430862 0.739479 0.732471 102 102 102
0.222445 0.482966 0.282738 102 102 102
0.719439 0.202405 0.558560 102 102 102
0.478958 0.563126 0.546512 102 102 102
0.262525 0.230461 0.122032 102 102 102
0.394790 0.631263 0.554351 102 102 102
0.370741 -0.699399 0.626608 102 102 102
0.494990 0.178357 0.276826 102 102 102
0.206413 -0.190381 0.078851 102 102 102
-0.947896 -0.727455 1.427697 102 102 102
-0.579158 0.859719 1.074542 102 102 102
-0.879759 -0.891784 1.569255 102 102 102
0.727455 0.358717 0.657869 102 102 102
0.194389 -0.130261 0.054755 102 102 102
0.158317 -0.294589 0.111847 102 102 102
0.683367 0.490982 0.708053 102 102 102
0.318637 0.238477 0.158401 102 102 102
-0.334669 -0.699399 0.601162 102 102 102
-0.631263 0.302605 0.490062 102 102 102
0.655311 0.366733 0.563925 102 102 102
-0.478958 -0.074148 0.234899 102 102 102
0.775551 0.919840 1.447585 102 102 102
0.434870 -0.983968 1.157305 102 102 102
-0.731463 -0.338677 0.649740 102 102 102
0.290581 -0.843687 0.796246 102 102 102
0.691383 0.803607 1.123795 102 102 102
0.154309 0.210421 0.068088 102 102 102
-0.799599 -0.723447 1.162734 102 102 102
-0.611222 0.655311 0.803025 102 102 102
-0.875751 0.258517 0.833772 102 102 102
-0.731463 0.266533 0.606078 102 102 102
-0.438878 -0.270541 0.265806 102 102 102
0.350701 0.482966 0.356248 102 102 102
-0.070140 0.963928 0.934077 102 102 102
0.727455 -0.515030 0.794447 102 102 102
-0.466934 1.000000 1.218027 102 102 102
-0.731463 -0.755511 1.105835 102 102 102
-0.743487 -0.218437 0.600488 102 102 102
0.046092 0.298597 0.091285 102 102 102
0.815631 0.559118 0.977868 102 102 102
-0.082164 -0.759519 0.583620 102 102 102
-0.631263 -0.286573 0.480617 102 102 102
-0.150301 -0.118236 0.036570 102 102 102
0.294589 -0.142285 0.107028 102 102 102
-0.402806 -0.370741 0.299702 102 102 102
-0.126253 -0.739479 0.562769 102 102 102
-0.270541 -0.723447 0.596568 102 102 102
0.066132 -0.234469 0.059349 102 102 102
-0.214429 0.494990 0.290995 102 102 102
0.907816 0.975952 1.776611 102 102 102
-0.879759 0.294589 0.860760 102 102 102
0.975952 0.763527 1.535456 102 102 102
-0.615230 0.370741 0.515958 102 102 102
0.446894 -0.951904 1.105835 102 102 102
0.919840 0.819639 1.517914 102 102 102
0.210421 -0.567134 0.365918 102 102 102
-0.498998 -0.595190 0.603251 102 102 102
-0.094188 0.390782 0.161582 102 102 102
-0.418838 0.683367 0.642415 102 102 102
0.639279 -0.779559 1.016389 102 102 102
-0.947896 -0.402806 1.060759 102 102 102
-0.102204 0.995992 1.002446 102 102 102
-0.531062 -0.723447 0.805402 102 102 102
0.010020 0.943888 0.891025 102 102 102
-0.531062 0.174349 0.312424 102 102 102
-0.715431 0.334669 0.623845 102 102 102
-0.366733 -0.867735 0.887458 102 102 102
0.951904 -0.238477 0.962992 102 102 102
-0.358717 -0.527054 0.406464 102 102 102
0.010020 -0.911824 0.831523 102 102 102
0.767535 0.975952 1.541592 102 102 102
-0.398798 -0.134269 0.177068 102 102 102
0.763527 0.270541 0.656166 102 102 102
-0.527054 -0.995992 1.269786 102 102 102
0.519038 0.318637 0.370930 102 102 102
-0.771543 -0.915832 1.434026 102 102 102
-0.587174 -0.643287 0.758591 102 102 102
0.763527 -0.398798 0.742013 102 102 102
-0.915832 0.202405 0.879715 102 102 102
-0.699399 -0.422846 0.667957 102 102 102
0.242485 0.611222 0.432392 102 102 102
-0.887776 -0.879759 1.562122 102 102 102
0.198397 0.198397 0.078723 102 102 102
-0.515030 0.595190 0.619508 102 102 102
-0.446894 0.338677 0.314416 102 102 102
0.182365 0.875751 0.800198 102 102 102
-0.398798 -0.995992 1.151040 102 102 102
-0.470942 -0.382766 0.368296 102 102 102
-0.094188 -0.503006 0.261887 102 102 102
0.370741 0.767535 0.726559 102 102 102
-0.955912 0.883768 1.694812 102 102 102
0.795591 0.875751 1.399906 102 102 102
0.386774 0.503006 0.402609 102 102 102
0.050100 0.539078 0.293115 102 102 102
-0.587174 -0.731463 0.879812 102 102 102
-0.983968 -0.130261 0.985161 102 102 102
-0.298597 -0.458918 0.299766 102 102 102
-0.547094 0.979960 1.259634 102 102 102
-0.903808 0.755511 1.387665 102 102 102
-0.470942 0.735471 0.762704 102 102 102
-0.134269 0.847695 0.736616 102 102 102
0.318637 0.430862 0.287172 102 102 102
-0.791583 -0.879759 1.400581 102 102 102
0.434870 -0.422846 0.367910 102 102 102
-0.234469 -0.254509 0.119751 102 102 102
-0.567134 0.366733 0.456135 102 102 102
-0.575150 -0.190381 0.367043 102 102 102
-0.006012 -0.234469 0.055012 102 102 102
0.022044 0.803607 0.646271 102 102 102
-0.466934 0.979960 1.178349 102 102 102
0.607214 -0.671343 0.819410 102 102 102
0.390782 -0.298597 0.241871 102 102 102
0.843687 -0.470942 0.933595 102 102 102
0.707415 -0.338677 0.615138 102 102 102
-0.458918 -0.290581 0.295043 102 102 102
-0.675351 0.883768 1.237144 102 102 102
0.987976 -0.607214 1.344806 102 102 102
0.298597 0.478958 0.318561 102 102 102
-0.438878 -0.563126 0.509725 102 102 102
-0.014028 -0.839679 0.705258 102 102 102
-0.659319 -0.086172 0.442127 102 102 102
-0.406814 0.350701 0.288489 102 102 102
0.402806 -0.462926 0.376553 102 102 102
0.466934 -0.527054 0.495813 102 102 102
0.683367 0.647295 0.885980 102 102 102
-0.398798 -0.198397 0.198401 102 102 102
-0.703407 -0.867735 1.247746 102 102 102
-0.819639 0.887776 1.459954 102 102 102
0.478958 -0.803607 0.875185 102 102 102
-0.995992 0.815631 1.657254 102 102 102
-0.735471 0.162325 0.567267 102 102 102
-0.162325 0.038076 0.027799 102 102 102
-0.747495 0.923848 1.412243 102 102 102
-0.138277 -0.406814 0.184618 102 102 102
-0.503006 0.414830 0.425099 102 102 102
0.559118 0.939880 1.195987 102 102 102
-0.863727 0.719439 1.263617 102 102 102
-0.230461 -0.707415 0.553548 102 102 102
0.987976 0.811623 1.634829 102 102 102
0.226453 -0.334669 0.163284 102 102 102
-0.771543 -0.603206 0.959137 102 102 102
0.146293 0.899800 0.831041 102 102 102
-0.919840 0.206413 0.888711 102 102 102
-0.623246 -0.551102 0.692150 102 102 102
-0.579158 0.070140 0.340344 102 102 102
0.194389 0.939880 0.921161 102 102 102
-0.034068 -0.038076 0.002610 102 102 102
0.775551 0.122244 0.616423 102 102 102
0.434870 -0.963928 1.118269 102 102 102
0.767535 0.138277 0.608230 102 102 102
-0.567134 0.663327 0.761644 102 102 102
-0.519038 -0.543086 0.564343 102 102 102
-0.190381 -0.474950 0.261822 102 102 102
-0.911824 -0.114228 0.844471 102 102 102
0.959920 -0.543086 1.216389 102 102 102
0.014028 0.406814 0.165694 102 102 102
-0.951904 -0.619238 1.289577 102 102 102
0.775551 -0.326653 0.708182 102 102 102
-0.454910 -0.454910 0.413886 102 102 102
-0.054108 -0.687375 0.475412 102 102 102
-0.879759 0.939880 1.657351 102 102 102
-0.971944 0.991984 1.928707 102 102 102
-0.819639 -0.338677 0.786511 102 102 102
0.190381 -0.182365 0.069502 102 102 102
-0.531062 -0.374750 0.422464 102 102 102
0.342685 -0.414830 0.289517 102 102 102
0.539078 -0.871744 1.050542 102 102 102
0.591182 0.759519 0.926366 102 102 102
0.166333 0.314629 0.126658 102 102 102
0.158317 0.879759 0.799041 102 102 102
0.931864 0.675351 1.324469 102 102 102
0.386774 0.687375 0.622078 102 102 102
-0.018036 -0.122244 0.015269 102 102 102
0.923848 0.683367 1.320485 102 102 102
-0.386774 -0.302605 0.241164 102 102 102
0.919840 0.663327 1.286107 102 102 102
0.879759 -0.354709 0.899796 102 102 102
0.418838 -0.747495 0.734174 102 102 102
-0.535070 -0.138277 0.305420 102 102 102
-0.290581 -0.398798 0.243477 102 102 102
0.294589 -0.751503 0.651540 102 102 102
-0.214429 0.867735 0.798945 102 102 102
0.919840 0.310621 0.942591 102 102 102
-0.767535 0.338677 0.703812 102 102 102
0.907816 0.110220 0.836278 102 102 102
-0.691383 0.002004 0.478014 102 102 102
0.943888 0.230461 0.944036 102 102 102
0.146293 -0.162325 0.047751 102 102 102
0.030060 -0.194389 0.038691 102 102 102
-0.498998 0.226453 0.300280 102 102 102
-0.434870 0.190381 0.225357 102 102 102
-0.779559 0.867735 1.360677 102 102 102
-0.030060 0.959920 0.922350 102 102 102
-0.494990 0.555110 0.553162 102 102 102
0.647295 0.282565 0.498833 102 102 102
0.394790 0.927856 1.016775 102 102 102
0.579158 -0.194389 0.373211 102 102 102
0.178357 -0.342685 0.149244 102 102 102
-0.755511 -1.000000 1.570797 102 102 102
-0.919840 -0.575150 1.176903 102 102 102
-0.643287 -0.282565 0.493661 102 102 102
-0.975952 0.046092 0.954607 102 102 102
0.547094 0.923848 1.152807 102 102 102
-0.430862 -0.963928 1.114799 102 102 102
0.823647 -0.078156 0.684503 102 102 102
-0.875751 -0.010020 0.767041 102 102 102
-0.298597 0.450902 0.292473 102 102 102
0.146293 -0.494990 0.266417 102 102 102
-0.791583 -0.450902 0.829916 102 102 102
-0.927856 0.827655 1.545930 102 102 102
-0.354709 -0.723447 0.649194 102 102 102
0.947896 0.298597 0.987667 102 102 102
0.955912 -0.074148 0.919265 102 102 102
-0.867735 -0.190381 0.789210 102 102 102
0.490982 0.478958 0.470464 102 102 102
-0.054108 -0.202405 0.043895 102 102 102
0.675351 0.891784 1.251377 102 102 102
-0.134269 -0.987976 0.994125 102 102 102
-0.294589 -0.442886 0.282931 102 102 102
-0.919840 0.607214 1.214814 102 102 102
-0.531062 0.703407 0.776808 102 102 102
-0.851703 0.066132 0.729772 102 102 102
0.979960 0.106212 0.971602 102 102 102
-0.474950 0.182365 0.258834 102 102 102
-0.050100 0.442886 0.198658 102 102 102
0.943888 -0.350701 1.013916 102 102 102
-0.679359 0.811623 1.120261 102 102 102
0.302605 0.490982 0.332633 102 102 102
-0.775551 0.647295 1.020470 102 102 102
0.150301 -0.286573 0.104714 102 102 102
0.807615 0.422846 0.831041 102 102 102
-0.587174 0.442886 0.540922 102 102 102
0.683367 -0.230461 0.520102 102 102 102
-0.643287 0.935872 1.289674 102 102 102
-0.134269 -0.070140 0.022948 102 102 102
-0.927856 0.959920 1.782362 102 102 102
-0.723447 0.430862 0.709017 102 102 102
-0.887776 0.823647 1.466540 102 102 102
0.058116 0.210421 0.047654 102 102 102
-0.098196 -0.927856 0.870559 102 102 102
-0.062124 0.763527 0.586833 102 102 102
0.310621 0.571142 0.422689 102 102 102
-0.563126 0.482966 0.550367 102 102 102
0.346693 -0.486974 0.357340 102 102 102
0.763527 -0.274549 0.658351 102 102 102
-0.102204 0.771543 0.605724 102 102 102
0.062124 -0.254509 0.068634 102 102 102
-0.138277 -0.134269 0.037148 102 102 102
-0.482966 -0.082164 0.240007 102 102 102
-0.054108 -0.346693 0.123124 102 102 102
0.122244 -0.362725 0.146513 102 102 102
-0.835671 -0.278557 0.775941 102 102 102
-0.482966 0.074148 0.238754 102 102 102
-0.230461 -0.110220 0.065261 102 102 102
0.827655 -0.631263 1.083506 102 102 102
0.663327 0.238477 0.496873 102 102 102
-0.715431 -0.899800 1.321481 102 102 102
0.559118 0.783567 0.926591 102 102 102
-0.182365 0.903808 0.850125 102 102 102
-0.511022 0.939880 1.144518 102 102 102
-0.446894 -0.867735 0.952679 102 102 102
-0.799599 0.703407 1.134140 102 102 102
0.923848 -0.286573 0.935619 102 102 102
-0.983968 -0.727455 1.497384 102 102 102
-0.783567 0.703407 1.108759 102 102 102
0.591182 -0.306613 0.443508 102 102 102
-0.350701 0.154309 0.146803 102 102 102
-0.663327 -0.991984 1.424034 102 102 102
-0.775551 0.851703 1.326878 102 102 102
-0.170341 0.799599 0.668375 102 102 102
-0.210421 0.302605 0.135847 102 102 102
0.174349 0.667335 0.475733 102 102 102
0.939880 0.763527 1.466348 102 102 102
-0.735471 0.430862 0.726559 102 102 102
-0.246493 0.078156 0.066867 102 102 102
0.947896 0.446894 1.098220 102 102 102
-0.535070 0.523046 0.559877 102 102 102
-0.446894 0.527054 0.477500 102 102 102
-0.947896 -0.290581 0.982944 102 102 102
-0.819639 -0.979960 1.632130 102 102 102
-0.002004 0.366733 0.134497 102 102 102
-0.767535 0.531062 0.871137 102 102 102
-0.783567 0.282565 0.693821 102 102 102
-0.711423 0.322645 0.610222 102 102 102
-0.126253 0.819639 0.687748 102 102 102
-0.883768 0.947896 1.679551 102 102 102
-0.503006 0.927856 1.113931 102 102 102
0.959920 -0.282565 1.001289 102 102 102
-0.394790 -0.470942 0.377645 102 102 102
0.755511 0.062124 0.574656 102 102 102
-0.955912 0.539078 1.204373 102 102 102
0.679359 -0.511022 0.722672 102 102 102
-0.727455 -0.150301 0.551781 102 102 102
-0.254509 0.282565 0.144618 102 102 102
-0.190381 0.515030 0.301501 102 102 102
0.815631 0.366733 0.799748 102 102 102
0.559118 0.503006 0.565628 102 102 102
0.923848 -0.535070 1.139795 102 102 102
-0.086172 0.318637 0.108955 102 102 102
-0.494990 -0.402806 0.407267 102 102 102
-0.074148 0.615230 0.384007 102 102 102
-0.795591 0.206413 0.675572 102 102 102
0.951904 -0.030060 0.907024 102 102 102
0.535070 -0.298597 0.375460 102 102 102
0.334669 0.599198 0.471042 102 102 102
-0.034068 -0.146293 0.022562 102 102 102
-0.851703 0.170341 0.754415 102 102 102
-0.819639 0.675351 1.127907 102 102 102
-0.643287 -0.134269 0.431846 102 102 102
0.879759 0.318637 0.875507 102 102 102
0.102204 0.699399 0.499604 102 102 102
0.214429 0.366733 0.180473 102 102 102
-0.715431 -0.759519 1.088711 102 102 102
0.358717 -0.955912 1.042446 102 102 102
-0.450902 0.667335 0.648648 102 102 102
0.354709 0.146293 0.147220 102 102 102
0.002004 0.843687 0.711812 102 102 102
0.114228 -0.827655 0.698061 102 102 102
-0.078156 -0.955912 0.919876 102 102 102
-0.162325 0.683367 0.493339 102 102 102
0.034068 0.843687 0.712969 102 102 102
0.358717 0.426854 0.310882 102 102 102
-0.675351 -0.046092 0.458223 102 102 102
-0.943888 -0.555110 1.199072 102 102 102
0.370741 -0.587174 0.482223 102 102 102
0.486974 -0.166333 0.264810 102 102 102
-0.743487 -0.751503 1.117530 102 102 102
-0.663327 0.194389 0.477789 102 102 102
-0.362725 0.587174 0.476343 102 102 102
-0.679359 0.923848 1.315023 102 102 102
0.815631 0.158317 0.690319 102 102 102
-0.947896 0.715431 1.410348 102 102 102
0.390782 0.106212 0.163991 102 102 102
-0.402806 -0.218437 0.209967 102 102 102
0.955912 -0.382766 1.060277 102 102 102
0.843687 0.895792 1.514251 102 102 102
-0.715431 -0.763527 1.094815 102 102 102
-0.274549 0.198397 0.114738 102 102 102
0.182365 0.795591 0.666222 102 102 102
-0.855711 -0.715431 1.244083 102 102 102
0.567134 -0.294589 0.408424 102 102 102
-0.879759 0.551102 1.077690 102 102 102
-0.302605 0.559118 0.404183 102 102 102
0.791583 0.983968 1.594797 102 102 102
0.398798 -0.743487 0.711812 102 102 102
0.891784 -0.254509 0.860053 102 102 102
0.462926 0.779559 0.822013 102 102 102
0.014028 -0.146293 0.021598 102 102 102
-0.871744 0.362725 0.891506 102 102 102
-0.222445 -0.631263 0.447974 102 102 102
0.527054 0.022044 0.278272 102 102 102
0.146293 0.362725 0.152971 102 102 102
0.306613 0.462926 0.308312 102 102 102
1.000000 0.222445 1.049482 102 102 102
0.559118 0.875751 1.079554 102 102 102
0.198397 0.855711 0.771603 102 102 102
0.498998 -0.270541 0.322191 102 102 102
-0.647295 -0.018036 0.419316 102 102 102
-0.719439 0.619238 0.901049 102 102 102
-0.174349 0.723447 0.553773 102 102 102
0.218437 0.631263 0.446207 102 102 102
0.875751 0.579158 1.102365 102 102 102
-0.687375 -0.406814 0.637981 102 102 102
0.474950 0.030060 0.226481 102 102 102
-0.919840 -0.022044 0.846591 102 102 102
0.466934 0.338677 0.332730 102 102 102
-0.018036 0.018036 0.000651 102 102 102
-0.803607 0.943888 1.536709 102 102 102
0.390782 -0.258517 0.219541 102 102 102
-0.827655 -0.366733 0.819507 102 102 102
0.719439 0.166333 0.545259 102 102 102
-0.138277 0.330661 0.128457 102 102 102
0.607214 -0.591182 0.718206 102 102 102
0.651303 0.523046 0.697772 102 102 102
-0.070140 0.919840 0.851025 102 102 102
0.334669 0.286573 0.194128 102 102 102
0.903808 0.723447 1.340244 102 102 102
0.547094 0.579158 0.634736 102 102 102
-0.527054 0.078156 0.283894 102 102 102
0.098196 -0.406814 0.175140 102 102 102
-0.547094 0.779559 0.907024 102 102 102
-0.659319 0.643287 0.848519 102 102 102
-0.619238 0.595190 0.737708 102 102 102
0.975952 0.847695 1.671070 102 102 102
-0.482966 -0.338677 0.347958 102 102 102
-0.523046 -0.715431 0.785419 102 102 102
-0.118236 0.254509 0.078755 102 102 102
0.863727 -0.731463 1.281063 102 102 102
-0.679359 -0.907816 1.285658 102 102 102
0.811623 0.615230 1.037241 102 102 102
0.414830 -0.575150 0.502882 102 102 102
0.282565 -0.022044 0.080329 102 102 102
-0.679359 -0.727455 0.990719 102 102 102
-0.030060 -0.667335 0.446239 102 102 102
0.947896 0.839679 1.603568 102 102 102
0.330661 0.703407 0.604118 102 102 102
0.623246 -0.747495 0.947185 102 102 102
-0.571142 0.090180 0.334336 102 102 102
-0.835671 -0.771543 1.293625 102 102 102
-0.963928 0.503006 1.182172 102 102 102
0.430862 0.751503 0.750399 102 102 102
-0.306613 -0.094188 0.102883 102 102 102
0.034068 -0.086172 0.008586 102 102 102
0.150301 -0.234469 0.077566 102 102 102
0.046092 0.442886 0.198272 102 102 102
-0.338677 -0.679359 0.576231 102 102 102
-0.262525 0.695391 0.552488 102 102 102
0.410822 -0.254509 0.233549 102 102 102
0.202405 0.539078 0.331573 102 102 102
0.246493 0.458918 0.271364 102 102 102
-0.178357 0.002004 0.031815 102 102 102
-0.438878 0.190381 0.228859 102 102 102
-0.266533 -0.406814 0.236537 102 102 102
0.386774 0.827655 0.834607 102 102 102
-0.014028 0.739479 0.547026 102 102 102
-0.350701 0.959920 1.044438 102 102 102
0.466934 -0.198397 0.257389 102 102 102
0.270541 0.995992 1.065192 102 102 102
-0.663327 -0.042084 0.441773 102 102 102
-0.871744 0.158317 0.785001 102 102 102
-0.130261 0.354709 0.142787 102 102 102
-0.170341 0.871744 0.788953 102 102 102
0.206413 0.054108 0.045534 102 102 102
