# 3D point list with one line of data per point:
#   POINT3D_ID, X, Y, Z, R, G, B, ERROR
17278 0.154309 -0.302605 0.115381 102 102 102 1.0
17279 -0.310621 0.807615 0.748728 102 102 102 1.0
17280 -0.350701 0.394790 0.278850 102 102 102 1.0
17281 0.138277 -0.747495 0.577869 102 102 102 1.0
17282 0.358717 -0.619238 0.512134 102 102 102 1.0
17283 -0.991984 0.262525 1.052952 102 102 102 1.0
17284 0.038076 -0.346693 0.121646 102 102 102 1.0
17285 -0.330661 -0.058116 0.112714 102 102 102 1.0
17286 0.358717 -0.158317 0.153742 102 102 102 1.0
17287 -0.138277 -0.515030 0.284376 102 102 102 1.0
17288 0.919840 0.422846 1.024904 102 102 102 1.0
17289 -0.671343 -0.166333 0.478368 102 102 102 1.0
17290 -0.354709 -0.767535 0.714929 102 102 102 1.0
17291 -0.054108 0.627254 0.396376 102 102 102 1.0
17292 0.991984 -0.695391 1.467601 102 102 102 1.0
17293 -0.955912 -0.639279 1.322444 102 102 102 1.0
17294 -0.871744 -0.855711 1.492179 102 102 102 1.0
17295 -0.018036 0.575150 0.331123 102 102 102 1.0
17296 -0.807615 -0.739479 1.199072 102 102 102 1.0
17297 0.803607 -0.198397 0.685146 102 102 102 1.0
17298 0.298597 -0.523046 0.362738 102 102 102 1.0
17299 -0.519038 0.695391 0.752969 102 102 102 1.0
17300 -0.130261 -0.871744 0.776905 102 102 102 1.0
17301 0.631263 -0.178357 0.430303 102 102 102 1.0
17302 0.875751 -0.042084 0.768712 102 102 102 1.0
17303 0.683367 -0.779559 1.074703 102 102 102 1.0
17304 -0.815631 0.995992 1.657254 102 102 102 1.0
17305 0.543086 0.795591 0.927908 102 102 102 1.0
17306 -0.138277 0.306613 0.113132 102 102 102 1.0
17307 0.719439 -0.222445 0.567074 102 102 102 1.0
17308 -0.258517 0.619238 0.450287 102 102 102 1.0
17309 0.767535 0.050100 0.591620 102 102 102 1.0
17310 -0.130261 0.474950 0.242545 102 102 102 1.0
17311 -0.190381 0.054108 0.039173 102 102 102 1.0
17312 -0.294589 0.126253 0.102722 102 102 102 1.0
17313 -0.875751 0.434870 0.956052 102 102 102 1.0
17314 0.434870 -0.274549 0.264489 102 102 102 1.0
17315 -0.523046 0.366733 0.408071 102 102 102 1.0
17316 0.743487 0.515030 0.818029 102 102 102 1.0
17317 -0.242485 0.182365 0.092056 102 102 102 1.0
17318 -0.158317 0.238477 0.081935 102 102 102 1.0
17319 0.258517 0.747495 0.625580 102 102 102 1.0
17320 0.422846 0.250501 0.241549 102 102 102 1.0
17321 -0.274549 -0.170341 0.104393 102 102 102 1.0
17322 -0.595190 0.555110 0.662399 102 102 102 1.0
17323 -0.847695 0.847695 1.437175 102 102 102 1.0
17324 0.046092 -0.202405 0.043092 102 102 102 1.0
17325 -0.038076 0.430862 0.187092 102 102 102 1.0
17326 0.406814 0.154309 0.189308 102 102 102 1.0
17327 -0.527054 -0.202405 0.318754 102 102 102 1.0
17328 0.450902 -0.086172 0.210738 102 102 102 1.0
17329 0.731463 -0.903808 1.351906 102 102 102 1.0
17330 0.539078 -0.002004 0.290609 102 102 102 1.0
17331 -0.799599 -0.931864 1.507729 102 102 102 1.0
17332 -0.527054 0.567134 0.599427 102 102 102 1.0
17333 0.494990 0.090180 0.253148 102 102 102 1.0
17334 0.863727 0.014028 0.746222 102 102 102 1.0
17335 0.963928 -0.274549 1.004534 102 102 102 1.0
17336 -0.859719 0.759519 1.315987 102 102 102 1.0
17337 -0.831663 0.579158 1.027088 102 102 102 1.0
17338 -0.731463 0.442886 0.731186 102 102 102 1.0
17339 0.234469 -0.891784 0.850254 102 102 102 1.0
17340 0.398798 -0.414830 0.331123 102 102 102 1.0
17341 0.238477 -0.715431 0.568713 102 102 102 1.0
17342 -0.831663 0.743487 1.244437 102 102 102 1.0
17343 0.130261 0.843687 0.728776 102 102 102 1.0
17344 0.727455 0.210421 0.573468 102 102 102 1.0
17345 0.454910 -0.130261 0.223911 102 102 102 1.0
17346 0.875751 -0.763527 1.349914 102 102 102 1.0
17347 0.274549 0.651303 0.499572 102 102 102 1.0
17348 -0.226453 -0.310621 0.147766 102 102 102 1.0
17349 0.747495 0.126253 0.574688 102 102 102 1.0
17350 -0.695391 0.531062 0.765595 102 102 102 1.0
17351 0.987976 -0.118236 0.990076 102 102 102 1.0
17352 -0.795591 -0.170341 0.661981 102 102 102 1.0
17353 0.474950 0.795591 0.858543 102 102 102 1.0
17354 -0.771543 -0.951904 1.501400 102 102 102 1.0
17355 -0.719439 0.034068 0.518753 102 102 102 1.0
17356 1.000000 0.755511 1.570797 102 102 102 1.0
17357 0.511022 0.138277 0.280264 102 102 102 1.0
17358 -0.182365 0.643287 0.447075 102 102 102 1.0
17359 -0.835671 0.975952 1.650829 102 102 102 1.0
17360 0.707415 -0.202405 0.541403 102 102 102 1.0
17361 0.394790 -0.563126 0.472970 102 102 102 1.0
17362 0.074148 0.771543 0.600777 102 102 102 1.0
17363 -0.118236 -0.094188 0.022851 102 102 102 1.0
17364 -0.655311 0.146293 0.450834 102 102 102 1.0
17365 0.787575 -0.715431 1.132116 102 102 102 1.0
17366 -0.915832 -0.074148 0.844246 102 102 102 1.0
17367 0.394790 -0.082164 0.162610 102 102 102 1.0
17368 0.262525 0.334669 0.180923 102 102 102 1.0
17369 -0.330661 -0.454910 0.316280 102 102 102 1.0
17370 -0.887776 0.655311 1.217577 102 102 102 1.0
17371 -0.222445 0.126253 0.065421 102 102 102 1.0
17372 -0.735471 -0.330661 0.650254 102 102 102 1.0
17373 -0.426854 -0.527054 0.459990 102 102 102 1.0
17374 -0.563126 0.130261 0.334079 102 102 102 1.0
17375 0.843687 0.486974 0.948952 102 102 102 1.0
17376 0.202405 0.527054 0.318754 102 102 102 1.0
17377 0.767535 0.539078 0.879715 102 102 102 1.0
17378 -0.687375 0.486974 0.709628 102 102 102 1.0
17379 0.394790 -0.611222 0.529452 102 102 102 1.0
17380 0.350701 -0.531062 0.405018 102 102 102 1.0
17381 0.170341 -0.050100 0.031526 102 102 102 1.0
17382 -0.919840 -0.895792 1.648548 102 102 102 1.0
17383 0.418838 0.122244 0.190369 102 102 102 1.0
17384 0.715431 -0.927856 1.372758 102 102 102 1.0
17385 -0.683367 -0.903808 1.283858 102 102 102 1.0
17386 -0.342685 -0.699399 0.606592 102 102 102 1.0
17387 -0.106212 -0.923848 0.864776 102 102 102 1.0
17388 0.302605 0.226453 0.142851 102 102 102 1.0
17389 -0.090180 -0.166333 0.035799 102 102 102 1.0
17390 0.931864 0.847695 1.586957 102 102 102 1.0
17391 0.871744 -0.158317 0.785001 102 102 102 1.0
17392 0.194389 -0.490982 0.278850 102 102 102 1.0
17393 -0.799599 -0.743487 1.192132 102 102 102 1.0
17394 0.450902 -0.422846 0.382111 102 102 102 1.0
17395 -0.983968 0.450902 1.171505 102 102 102 1.0
17396 -0.799599 -0.150301 0.661949 102 102 102 1.0
17397 -0.555110 -0.098196 0.317790 102 102 102 1.0
17398 -0.134269 -0.683367 0.485018 102 102 102 1.0
17399 -0.262525 0.170341 0.097935 102 102 102 1.0
17400 0.907816 -0.711423 1.330252 102 102 102 1.0
17401 0.619238 0.707415 0.883892 102 102 102 1.0
17402 -0.454910 -0.090180 0.215075 102 102 102 1.0
17403 0.098196 0.991984 0.993675 102 102 102 1.0
17404 0.779559 -0.515030 0.872968 102 102 102 1.0
17405 -0.150301 0.539078 0.313196 102 102 102 1.0
17406 0.130261 0.362725 0.148538 102 102 102 1.0
17407 -0.535070 0.342685 0.403733 102 102 102 1.0
17408 0.118236 -0.843687 0.725788 102 102 102 1.0
17409 0.234469 -0.374750 0.195413 102 102 102 1.0
17410 -0.494990 -0.046092 0.247140 102 102 102 1.0
17411 -0.294589 0.242485 0.145582 102 102 102 1.0
17412 -0.915832 0.647295 1.257738 102 102 102 1.0
17413 -0.482966 -0.931864 1.101626 102 102 102 1.0
17414 -0.026052 0.150301 0.023269 102 102 102 1.0
17415 0.575150 -0.410822 0.499572 102 102 102 1.0
17416 0.046092 -0.090180 0.010257 102 102 102 1.0
17417 0.863727 0.242485 0.804824 102 102 102 1.0
17418 -0.599198 0.170341 0.388055 102 102 102 1.0
17419 -0.623246 -0.991984 1.372468 102 102 102 1.0
17420 0.294589 -0.939880 0.970157 102 102 102 1.0
17421 0.310621 0.058116 0.099863 102 102 102 1.0
17422 -0.238477 0.943888 0.947795 102 102 102 1.0
17423 0.038076 -0.318637 0.102980 102 102 102 1.0
17424 0.238477 -0.887776 0.845017 102 102 102 1.0
17425 0.619238 0.410822 0.552231 102 102 102 1.0
17426 0.571142 -0.066132 0.330577 102 102 102 1.0
17427 -0.747495 0.931864 1.427119 102 102 102 1.0
17428 -0.146293 0.410822 0.190176 102 102 102 1.0
17429 0.294589 -0.819639 0.758591 102 102 102 1.0
17430 0.575150 -0.166333 0.358464 102 102 102 1.0
17431 -0.619238 -0.250501 0.446207 102 102 102 1.0
17432 0.250501 -0.811623 0.721483 102 102 102 1.0
17433 -0.527054 0.106212 0.289067 102 102 102 1.0
17434 0.338677 -0.462926 0.329003 102 102 102 1.0
17435 -0.743487 -0.250501 0.615524 102 102 102 1.0
17436 0.334669 0.362725 0.243573 102 102 102 1.0
17437 0.667335 0.226453 0.496616 102 102 102 1.0
17438 0.579158 -0.615230 0.713933 102 102 102 1.0
17439 0.458918 0.895792 1.013048 102 102 102 1.0
17440 -0.326653 -0.959920 1.028149 102 102 102 1.0
17441 -0.338677 -0.647295 0.533693 102 102 102 1.0
17442 0.002004 0.334669 0.112008 102 102 102 1.0
17443 -0.426854 0.478958 0.411605 102 102 102 1.0
17444 0.815631 -0.430862 0.850896 102 102 102 1.0
17445 0.975952 0.899800 1.762121 102 102 102 1.0
17446 -0.490982 0.523046 0.514641 102 102 102 1.0
17447 0.478958 -0.943888 1.120325 102 102 102 1.0
17448 0.967936 -0.915832 1.775648 102 102 102 1.0
17449 -0.398798 -0.531062 0.441067 102 102 102 1.0
17450 -0.326653 0.711423 0.612825 102 102 102 1.0
17451 0.390782 -0.202405 0.193678 102 102 102 1.0
17452 -0.751503 -0.875751 1.331697 102 102 102 1.0
17453 -0.430862 -0.290581 0.270079 102 102 102 1.0
17454 -0.274549 0.823647 0.753772 102 102 102 1.0
17455 -0.571142 0.066132 0.330577 102 102 102 1.0
17456 0.575150 -0.146293 0.352199 102 102 102 1.0
17457 0.763527 -0.342685 0.700407 102 102 102 1.0
17458 0.591182 0.583166 0.689580 102 102 102 1.0
17459 0.494990 -0.234469 0.299991 102 102 102 1.0
17460 0.991984 -0.759519 1.560901 102 102 102 1.0
17461 -0.170341 -0.438878 0.221630 102 102 102 1.0
17462 0.539078 -0.847695 1.009193 102 102 102 1.0
17463 -0.975952 0.210421 0.996759 102 102 102 1.0
17464 0.779559 0.354709 0.733531 102 102 102 1.0
17465 -0.070140 -0.322645 0.109020 102 102 102 1.0
17466 0.815631 0.783567 1.279232 102 102 102 1.0
17467 -0.719439 0.238477 0.574464 102 102 102 1.0
17468 0.923848 0.474950 1.079072 102 102 102 1.0
17469 -0.703407 0.006012 0.494817 102 102 102 1.0
17470 0.983968 0.302605 1.059763 102 102 102 1.0
17471 0.410822 0.170341 0.197790 102 102 102 1.0
17472 -0.494990 0.414830 0.417099 102 102 102 1.0
17473 0.478958 0.474950 0.454978 102 102 102 1.0
17474 -0.430862 -0.927856 1.046558 102 102 102 1.0
17475 0.747495 -0.771543 1.154027 102 102 102 1.0
17476 -0.639279 -0.198397 0.448038 102 102 102 1.0
17477 -0.707415 0.166333 0.528102 102 102 102 1.0
17478 0.454910 -0.907816 1.031072 102 102 102 1.0
17479 0.751503 0.386774 0.714351 102 102 102 1.0
17480 0.711423 -0.226453 0.557403 102 102 102 1.0
17481 0.334669 -0.090180 0.120136 102 102 102 1.0
17482 -0.102204 0.082164 0.017197 102 102 102 1.0
17483 0.146293 0.755511 0.592198 102 102 102 1.0
17484 -0.138277 -0.639279 0.427797 102 102 102 1.0
17485 0.482966 0.162325 0.259605 102 102 102 1.0
17486 -0.875751 -0.667335 1.212276 102 102 102 1.0
17487 -0.422846 0.695391 0.662367 102 102 102 1.0
17488 -0.647295 -0.587174 0.763764 102 102 102 1.0
17489 -0.042084 -0.643287 0.415589 102 102 102 1.0
17490 -0.218437 -0.142285 0.067960 102 102 102 1.0
17491 0.322645 0.503006 0.357115 102 102 102 1.0
17492 -0.430862 0.843687 0.897450 102 102 102 1.0
17493 -0.755511 0.050100 0.573307 102 102 102 1.0
17494 0.370741 -0.210421 0.181726 102 102 102 1.0
17495 0.266533 0.963928 1.000197 102 102 102 1.0
17496 0.811623 -0.066132 0.663106 102 102 102 1.0
17497 -0.178357 -0.775551 0.633291 102 102 102 1.0
17498 0.775551 0.791583 1.228083 102 102 102 1.0
17499 0.507014 0.679359 0.718592 102 102 102 1.0
17500 -0.919840 0.218437 0.893820 102 102 102 1.0
17501 -0.911824 0.470942 1.053209 102 102 102 1.0
17502 0.695391 0.358717 0.612247 102 102 102 1.0
17503 -0.823647 -0.358717 0.807073 102 102 102 1.0
17504 -0.563126 -0.482966 0.550367 102 102 102 1.0
17505 -1.000000 0.062124 1.003859 102 102 102 1.0
17506 -0.707415 -0.679359 0.961964 102 102 102 1.0
17507 0.535070 -0.655311 0.715732 102 102 102 1.0
17508 0.779559 -0.947896 1.506219 102 102 102 1.0
17509 0.006012 0.627254 0.393484 102 102 102 1.0
17510 -0.250501 0.779559 0.670463 102 102 102 1.0
17511 0.066132 0.867735 0.757338 102 102 102 1.0
17512 0.466934 -0.450902 0.421340 102 102 102 1.0
17513 0.991984 0.995992 1.976032 102 102 102 1.0
17514 0.422846 -0.947896 1.077305 102 102 102 1.0
17515 0.350701 -0.198397 0.162353 102 102 102 1.0
17516 -0.539078 -0.971944 1.235280 102 102 102 1.0
17517 0.535070 0.474950 0.511877 102 102 102 1.0
17518 -0.078156 0.018036 0.006434 102 102 102 1.0
17519 0.567134 -0.683367 0.788631 102 102 102 1.0
17520 -0.707415 -0.823647 1.178831 102 102 102 1.0
17521 -0.062124 -0.563126 0.320971 102 102 102 1.0
17522 0.635271 -0.198397 0.442930 102 102 102 1.0
17523 -0.943888 0.835671 1.589271 102 102 102 1.0
17524 0.198397 0.022044 0.039847 102 102 102 1.0
17525 -0.931864 -0.923848 1.721865 102 102 102 1.0
17526 -0.194389 -0.675351 0.493886 102 102 102 1.0
17527 0.759519 0.346693 0.697065 102 102 102 1.0
17528 0.214429 0.615230 0.424488 102 102 102 1.0
17529 0.042084 0.158317 0.026835 102 102 102 1.0
17530 0.783567 -0.623246 1.002414 102 102 102 1.0
17531 0.847695 -0.410822 0.887362 102 102 102 1.0
17532 0.531062 0.262525 0.350946 102 102 102 1.0
17533 -0.695391 -0.987976 1.459665 102 102 102 1.0
17534 -0.198397 -0.378758 0.182819 102 102 102 1.0
17535 -0.575150 0.799599 0.970157 102 102 102 1.0
17536 -0.230461 0.290581 0.137550 102 102 102 1.0
17537 0.170341 0.378758 0.172473 102 102 102 1.0
17538 -0.643287 0.486974 0.650961 102 102 102 1.0
17539 0.478958 -0.422846 0.408199 102 102 102 1.0
17540 0.691383 -0.466934 0.696037 102 102 102 1.0
17541 -0.895792 0.759519 1.379312 102 102 102 1.0
17542 -0.975952 0.070140 0.957402 102 102 102 1.0
17543 0.839679 0.575150 1.035859 102 102 102 1.0
17544 -0.438878 -0.342685 0.310047 102 102 102 1.0
17545 0.503006 0.298597 0.342175 102 102 102 1.0
17546 0.278557 0.094188 0.086466 102 102 102 1.0
17547 0.559118 -0.270541 0.385806 102 102 102 1.0
17548 -1.000000 0.563126 1.317111 102 102 102 1.0
17549 0.170341 -0.987976 1.005112 102 102 102 1.0
17550 -0.474950 0.282565 0.305420 102 102 102 1.0
17551 -0.503006 0.002004 0.253019 102 102 102 1.0
17552 0.507014 0.759519 0.833932 102 102 102 1.0
17553 0.807615 0.927856 1.513159 102 102 102 1.0
17554 -0.162325 -0.086172 0.033775 102 102 102 1.0
17555 0.158317 -0.062124 0.028924 102 102 102 1.0
17556 -0.470942 -0.314629 0.320778 102 102 102 1.0
17557 -0.807615 -0.923848 1.505737 102 102 102 1.0
17558 -0.855711 -0.683367 1.199232 102 102 102 1.0
17559 -0.939880 0.350701 1.006365 102 102 102 1.0
17560 0.567134 0.643287 0.735459 102 102 102 1.0
17561 0.819639 0.783567 1.285786 102 102 102 1.0
17562 -0.494990 0.390782 0.397725 102 102 102 1.0
17563 0.563126 0.619238 0.700567 102 102 102 1.0
17564 0.667335 0.194389 0.483123 102 102 102 1.0
17565 -0.302605 0.018036 0.091895 102 102 102 1.0
17566 -0.418838 0.831663 0.867089 102 102 102 1.0
17567 -0.875751 -0.663327 1.206943 102 102 102 1.0
17568 -0.254509 -0.595190 0.419026 102 102 102 1.0
17569 -0.418838 -0.511022 0.436569 102 102 102 1.0
17570 -0.110220 -0.755511 0.582945 102 102 102 1.0
17571 -0.899800 -0.178357 0.841450 102 102 102 1.0
17572 0.338677 -0.286573 0.196827 102 102 102 1.0
17573 -0.711423 0.382766 0.652632 102 102 102 1.0
17574 0.851703 -0.763527 1.308372 102 102 102 1.0
17575 -0.519038 0.010020 0.269501 102 102 102 1.0
17576 0.186373 -0.635271 0.438303 102 102 102 1.0
17577 0.102204 0.426854 0.192650 102 102 102 1.0
17578 0.334669 -0.703407 0.606785 102 102 102 1.0
17579 -0.246493 0.843687 0.772567 102 102 102 1.0
17580 0.306613 -0.286573 0.176136 102 102 102 1.0
17581 -0.907816 0.667335 1.269465 102 102 102 1.0
17582 0.270541 -0.406814 0.238690 102 102 102 1.0
17583 0.482966 -0.002004 0.233260 102 102 102 1.0
17584 -0.995992 0.194389 1.029787 102 102 102 1.0
17585 -0.286573 -0.899800 0.891764 102 102 102 1.0
17586 -0.186373 -0.122244 0.049679 102 102 102 1.0
17587 -0.218437 -0.687375 0.520199 102 102 102 1.0
17588 -0.783567 -0.226453 0.665258 102 102 102 1.0
17589 -0.763527 -0.719439 1.100566 102 102 102 1.0
17590 0.042084 -0.110220 0.013920 102 102 102 1.0
17591 -0.190381 0.843687 0.748053 102 102 102 1.0
17592 0.102204 -0.138277 0.029566 102 102 102 1.0
17593 0.699399 0.571142 0.815362 102 102 102 1.0
17594 -0.494990 -0.462926 0.459315 102 102 102 1.0
17595 -0.779559 0.943888 1.498637 102 102 102 1.0
17596 0.647295 0.466934 0.637018 102 102 102 1.0
17597 0.442886 -0.731463 0.731186 102 102 102 1.0
17598 -0.458918 -0.771543 0.805884 102 102 102 1.0
17599 -0.334669 0.931864 0.980374 102 102 102 1.0
17600 -0.402806 -0.026052 0.162931 102 102 102 1.0
17601 -0.074148 -0.619238 0.388954 102 102 102 1.0
17602 0.354709 -0.635271 0.529387 102 102 102 1.0
17603 -0.555110 0.046092 0.310272 102 102 102 1.0
17604 0.927856 0.711423 1.367039 102 102 102 1.0
17605 -0.066132 0.322645 0.108473 102 102 102 1.0
17606 0.567134 0.126253 0.337581 102 102 102 1.0
17607 -0.054108 -0.386774 0.152521 102 102 102 1.0
17608 0.278557 0.651303 0.501789 102 102 102 1.0
17609 -0.458918 0.414830 0.382689 102 102 102 1.0
17610 -0.871744 0.539078 1.050542 102 102 102 1.0
17611 0.182365 -0.663327 0.473259 102 102 102 1.0
17612 -0.643287 0.735471 0.954735 102 102 102 1.0
17613 -0.935872 0.959920 1.797302 102 102 102 1.0
17614 -0.046092 -0.346693 0.122321 102 102 102 1.0
17615 -0.286573 -0.827655 0.767137 102 102 102 1.0
17616 0.494990 0.126253 0.260955 102 102 102 1.0
17617 -0.426854 0.138277 0.201324 102 102 102 1.0
17618 -0.531062 0.815631 0.947281 102 102 102 1.0
17619 0.991984 -0.054108 0.986960 102 102 102 1.0
17620 -0.382766 0.118236 0.160489 102 102 102 1.0
17621 0.018036 0.651303 0.424520 102 102 102 1.0
17622 0.082164 -0.771543 0.602030 102 102 102 1.0
17623 0.543086 -0.326653 0.401645 102 102 102 1.0
17624 -0.643287 0.382766 0.560327 102 102 102 1.0
17625 0.583166 0.627254 0.733531 102 102 102 1.0
17626 -0.198397 -0.519038 0.308762 102 102 102 1.0
17627 -0.054108 -0.058116 0.006305 102 102 102 1.0
17628 -0.939880 -0.222445 0.932856 102 102 102 1.0
17629 0.042084 0.482966 0.235027 102 102 102 1.0
17630 -0.482966 0.186373 0.267991 102 102 102 1.0
17631 0.847695 0.595190 1.072839 102 102 102 1.0
17632 -0.919840 -0.855711 1.578347 102 102 102 1.0
17633 0.571142 0.126253 0.342143 102 102 102 1.0
17634 0.418838 0.454910 0.382368 102 102 102 1.0
17635 -0.863727 0.507014 1.003088 102 102 102 1.0
17636 0.919840 -0.154309 0.869916 102 102 102 1.0
17637 0.294589 -0.539078 0.377388 102 102 102 1.0
17638 -0.567134 0.595190 0.675893 102 102 102 1.0
17639 0.254509 0.106212 0.076056 102 102 102 1.0
17640 -0.927856 -0.679359 1.322444 102 102 102 1.0
17641 0.587174 -0.927856 1.205690 102 102 102 1.0
17642 -0.042084 -0.118236 0.015751 102 102 102 1.0
17643 0.186373 -0.931864 0.903105 102 102 102 1.0
17644 -0.547094 -0.290581 0.383749 102 102 102 1.0
17645 -0.098196 0.158317 0.034707 102 102 102 1.0
17646 0.142285 0.539078 0.310850 102 102 102 1.0
17647 0.971944 0.130261 0.961643 102 102 102 1.0
17648 0.995992 -0.727455 1.521191 102 102 102 1.0
17649 -0.571142 0.346693 0.446400 102 102 102 1.0
17650 0.246493 -0.659319 0.495460 102 102 102 1.0
17651 0.262525 0.971944 1.013594 102 102 102 1.0
17652 -0.318637 -0.442886 0.297678 102 102 102 1.0
17653 0.599198 0.346693 0.479235 102 102 102 1.0
17654 0.695391 -0.947896 1.382075 102 102 102 1.0
17655 0.935872 -0.142285 0.896101 102 102 102 1.0
17656 0.939880 -0.763527 1.466348 102 102 102 1.0
17657 -0.703407 0.034068 0.495942 102 102 102 1.0
17658 -0.811623 0.531062 0.940759 102 102 102 1.0
17659 -0.775551 0.927856 1.462396 102 102 102 1.0
17660 -0.595190 0.979960 1.314573 102 102 102 1.0
17661 0.006012 0.254509 0.064811 102 102 102 1.0
17662 0.531062 0.402806 0.444279 102 102 102 1.0
17663 0.030060 0.466934 0.218931 102 102 102 1.0
17664 0.306613 -0.771543 0.689290 102 102 102 1.0
17665 0.006012 0.114228 0.013084 102 102 102 1.0
17666 -0.494990 0.230461 0.298127 102 102 102 1.0
17667 -0.142285 -0.290581 0.104682 102 102 102 1.0
17668 0.819639 0.318637 0.773338 102 102 102 1.0
17669 -0.587174 -0.358717 0.473452 102 102 102 1.0
17670 -0.683367 -0.519038 0.736391 102 102 102 1.0
17671 -0.214429 0.691383 0.523990 102 102 102 1.0
17672 0.070140 0.382766 0.151429 102 102 102 1.0
17673 -0.310621 0.434870 0.285597 102 102 102 1.0
17674 -0.198397 0.010020 0.039462 102 102 102 1.0
17675 0.354709 0.991984 1.109851 102 102 102 1.0
17676 -0.555110 0.791583 0.934751 102 102 102 1.0
17677 0.963928 -0.026052 0.929836 102 102 102 1.0
17678 0.318637 -0.142285 0.121775 102 102 102 1.0
17679 0.222445 0.102204 0.059927 102 102 102 1.0
17680 -0.386774 0.402806 0.311846 102 102 102 1.0
17681 0.314629 0.671343 0.549693 102 102 102 1.0
17682 0.915832 -0.174349 0.869145 102 102 102 1.0
17683 -0.855711 0.843687 1.444050 102 102 102 1.0
17684 0.987976 -0.254509 1.040871 102 102 102 1.0
17685 -0.871744 -0.150301 0.782527 102 102 102 1.0
17686 0.350701 -0.166333 0.150658 102 102 102 1.0
17687 -0.755511 0.362725 0.702367 102 102 102 1.0
17688 -0.410822 0.971944 1.113449 102 102 102 1.0
17689 -0.450902 0.066132 0.207686 102 102 102 1.0
17690 0.899800 0.711423 1.315762 102 102 102 1.0
17691 -0.046092 -0.887776 0.790270 102 102 102 1.0
17692 0.126253 -0.635271 0.419508 102 102 102 1.0
17693 0.174349 0.410822 0.199172 102 102 102 1.0
17694 -0.515030 -0.551102 0.568970 102 102 102 1.0
17695 0.438878 -0.535070 0.478914 102 102 102 1.0
17696 -0.583166 0.322645 0.444183 102 102 102 1.0
17697 0.026052 -0.486974 0.237822 102 102 102 1.0
17698 -0.951904 0.174349 0.936518 102 102 102 1.0
17699 0.659319 0.270541 0.507894 102 102 102 1.0
17700 -0.386774 0.859719 0.888711 102 102 102 1.0
17701 -0.871744 0.875751 1.526877 102 102 102 1.0
17702 -0.847695 -0.919840 1.564692 102 102 102 1.0
17703 0.238477 -0.134269 0.074899 102 102 102 1.0
17704 -0.707415 -0.314629 0.599427 102 102 102 1.0
17705 0.426854 0.539078 0.472809 102 102 102 1.0
17706 0.855711 -0.394790 0.888101 102 102 102 1.0
17707 0.166333 0.174349 0.058064 102 102 102 1.0
17708 0.390782 -0.727455 0.681901 102 102 102 1.0
17709 0.947896 0.438878 1.091120 102 102 102 1.0
17710 -0.675351 0.214429 0.502078 102 102 102 1.0
17711 0.246493 0.987976 1.036855 102 102 102 1.0
17712 -0.899800 -0.394790 0.965498 102 102 102 1.0
17713 0.486974 -0.290581 0.321581 102 102 102 1.0
17714 0.226453 -0.719439 0.568873 102 102 102 1.0
17715 0.663327 -0.194389 0.477789 102 102 102 1.0
17716 -0.747495 0.030060 0.559652 102 102 102 1.0
17717 0.014028 0.519038 0.269597 102 102 102 1.0
17718 0.867735 0.983968 1.721158 102 102 102 1.0
17719 0.202405 0.014028 0.041164 102 102 102 1.0
17720 -0.206413 0.915832 0.881354 102 102 102 1.0
17721 0.490982 -0.390782 0.393774 102 102 102 1.0
17722 -0.142285 -0.607214 0.388954 102 102 102 1.0
17723 -0.358717 -0.599198 0.487717 102 102 102 1.0
17724 0.022044 0.274549 0.075863 102 102 102 1.0
17725 0.386774 0.318637 0.251123 102 102 102 1.0
17726 -0.539078 -0.995992 1.282605 102 102 102 1.0
17727 -0.847695 -0.490982 0.959651 102 102 102 1.0
17728 -0.210421 -0.322645 0.148377 102 102 102 1.0
17729 0.899800 -0.254509 0.874414 102 102 102 1.0
17730 0.274549 -0.651303 0.499572 102 102 102 1.0
17731 0.218437 0.430862 0.233356 102 102 102 1.0
17732 0.274549 0.382766 0.221887 102 102 102 1.0
17733 0.867735 0.543086 1.047907 102 102 102 1.0
17734 -0.911824 0.314629 0.930414 102 102 102 1.0
17735 0.106212 0.006012 0.011317 102 102 102 1.0
17736 0.955912 -0.294589 1.000550 102 102 102 1.0
17737 0.090180 0.042084 0.009904 102 102 102 1.0
17738 0.338677 -0.350701 0.237694 102 102 102 1.0
17739 -0.855711 -0.567134 1.053883 102 102 102 1.0
17740 0.583166 0.226453 0.391364 102 102 102 1.0
17741 -0.342685 -0.474950 0.343011 102 102 102 1.0
17742 -0.955912 -0.611222 1.287360 102 102 102 1.0
17743 -0.599198 0.114228 0.372087 102 102 102 1.0
17744 -0.214429 -0.747495 0.604729 102 102 102 1.0
17745 -0.595190 -0.242485 0.413051 102 102 102 1.0
17746 -0.995992 -0.619238 1.375456 102 102 102 1.0
17747 0.378758 0.330661 0.252794 102 102 102 1.0
17748 -0.943888 -0.663327 1.330926 102 102 102 1.0
17749 0.210421 0.595190 0.398529 102 102 102 1.0
17750 0.611222 0.631263 0.772085 102 102 102 1.0
17751 0.134269 0.879759 0.792005 102 102 102 1.0
17752 -0.787575 -0.358717 0.748953 102 102 102 1.0
17753 -0.575150 0.330661 0.440135 102 102 102 1.0
17754 -0.751503 0.967936 1.501657 102 102 102 1.0
17755 1.000000 0.967936 1.936900 102 102 102 1.0
17756 0.462926 0.867735 0.967265 102 102 102 1.0
17757 0.911824 -0.430862 1.017064 102 102 102 1.0
17758 0.739479 0.462926 0.761129 102 102 102 1.0
17759 -0.486974 -0.863727 0.983169 102 102 102 1.0
17760 0.939880 -0.631263 1.281866 102 102 102 1.0
17761 -0.651303 0.294589 0.510978 102 102 102 1.0
17762 0.719439 -0.006012 0.517628 102 102 102 1.0
17763 -0.991984 0.210421 1.028309 102 102 102 1.0
17764 -0.531062 -0.062124 0.285886 102 102 102 1.0
17765 -0.302605 0.795591 0.724535 102 102 102 1.0
17766 0.799599 -0.715431 1.151200 102 102 102 1.0
17767 -0.655311 0.767535 1.018542 102 102 102 1.0
17768 -0.178357 -0.507014 0.288874 102 102 102 1.0
17769 0.146293 -0.098196 0.031044 102 102 102 1.0
17770 0.655311 0.382766 0.575941 102 102 102 1.0
17771 0.747495 0.779559 1.166461 102 102 102 1.0
17772 0.042084 -0.418838 0.177196 102 102 102 1.0
17773 -0.246493 0.651303 0.484954 102 102 102 1.0
17774 0.466934 0.975952 1.170509 102 102 102 1.0
17775 0.070140 0.835671 0.703266 102 102 102 1.0
17776 0.699399 -0.434870 0.678270 102 102 102 1.0
17777 0.022044 0.402806 0.162738 102 102 102 1.0
17778 0.230461 -0.851703 0.778511 102 102 102 1.0
17779 0.062124 -0.763527 0.586833 102 102 102 1.0
17780 -0.146293 0.571142 0.347605 102 102 102 1.0
17781 0.042084 0.943888 0.892695 102 102 102 1.0
17782 0.322645 0.494990 0.349115 102 102 102 1.0
17783 0.214429 -0.551102 0.349693 102 102 102 1.0
17784 -0.018036 0.519038 0.269726 102 102 102 1.0
17785 0.627254 0.555110 0.701596 102 102 102 1.0
17786 0.707415 0.523046 0.774013 102 102 102 1.0
17787 -0.218437 0.507014 0.304778 102 102 102 1.0
17788 0.486974 0.903808 1.054012 102 102 102 1.0
17789 -0.286573 0.018036 0.082449 102 102 102 1.0
17790 0.394790 -0.394790 0.311718 102 102 102 1.0
17791 0.699399 -0.783567 1.103136 102 102 102 1.0
17792 -0.246493 -0.855711 0.793001 102 102 102 1.0
17793 -0.583166 0.815631 1.005337 102 102 102 1.0
17794 -0.258517 -0.038076 0.068281 102 102 102 1.0
17795 -0.699399 0.607214 0.857868 102 102 102 1.0
17796 0.146293 -0.623246 0.409838 102 102 102 1.0
17797 -0.535070 0.951904 1.192421 102 102 102 1.0
17798 -0.835671 0.719439 1.215939 102 102 102 1.0
17799 0.262525 -0.743487 0.621692 102 102 102 1.0
17800 -0.382766 -0.755511 0.717306 102 102 102 1.0
17801 -0.803607 0.831663 1.337448 102 102 102 1.0
17802 0.278557 -0.006012 0.077630 102 102 102 1.0
17803 0.503006 0.282565 0.332858 102 102 102 1.0
17804 -0.607214 0.803607 1.014494 102 102 102 1.0
17805 0.987976 -0.851703 1.701495 102 102 102 1.0
17806 0.462926 -0.126253 0.230240 102 102 102 1.0
17807 -0.899800 0.507014 1.066702 102 102 102 1.0
17808 -0.787575 0.527054 0.898061 102 102 102 1.0
17809 -0.583166 -0.058116 0.343460 102 102 102 1.0
17810 0.090180 0.234469 0.063108 102 102 102 1.0
17811 0.591182 -0.054108 0.352424 102 102 102 1.0
17812 0.683367 0.274549 0.542367 102 102 102 1.0
17813 0.122244 0.939880 0.898318 102 102 102 1.0
17814 -0.046092 0.042084 0.003896 102 102 102 1.0
17815 0.579158 0.266533 0.406464 102 102 102 1.0
17816 0.038076 0.414830 0.173533 102 102 102 1.0
17817 0.178357 -0.755511 0.602608 102 102 102 1.0
17818 0.907816 0.619238 1.207585 102 102 102 1.0
17819 -0.486974 -0.302605 0.328714 102 102 102 1.0
17820 -0.763527 0.274549 0.658351 102 102 102 1.0
17821 -0.018036 -0.078156 0.006434 102 102 102 1.0
17822 0.094188 -0.170341 0.037887 102 102 102 1.0
17823 -0.254509 0.442886 0.260923 102 102 102 1.0
17824 0.715431 -0.414830 0.683925 102 102 102 1.0
17825 0.066132 0.310621 0.100859 102 102 102 1.0
17826 0.122244 0.575150 0.345742 102 102 102 1.0
17827 0.511022 0.971944 1.205818 102 102 102 1.0
17828 -0.827655 -0.815631 1.350268 102 102 102 1.0
17829 0.458918 -0.382766 0.357115 102 102 102 1.0
17830 0.711423 0.302605 0.597692 102 102 102 1.0
17831 -0.494990 -0.959920 1.166461 102 102 102 1.0
17832 -0.647295 0.627254 0.812438 102 102 102 1.0
17833 0.651303 0.290581 0.508632 102 102 102 1.0
17834 -0.587174 -0.627254 0.738222 102 102 102 1.0
17835 0.118236 -0.923848 0.867474 102 102 102 1.0
17836 0.266533 -0.547094 0.370352 102 102 102 1.0
17837 -0.667335 0.971944 1.390010 102 102 102 1.0
17838 -0.402806 0.803607 0.808037 102 102 102 1.0
17839 0.919840 0.679359 1.307633 102 102 102 1.0
17840 -0.002004 0.438878 0.192618 102 102 102 1.0
17841 0.282565 -0.250501 0.142594 102 102 102 1.0
17842 -0.631263 -0.955912 1.312260 102 102 102 1.0
17843 -0.527054 0.667335 0.723122 102 102 102 1.0
17844 0.322645 0.374750 0.244537 102 102 102 1.0
17845 -0.306613 -0.703407 0.588793 102 102 102 1.0
17846 -0.254509 0.935872 0.940631 102 102 102 1.0
17847 -0.086172 0.418838 0.182851 102 102 102 1.0
17848 0.110220 0.875751 0.779089 102 102 102 1.0
17849 0.386774 0.086172 0.157019 102 102 102 1.0
17850 0.218437 0.486974 0.284858 102 102 102 1.0
17851 0.158317 0.486974 0.262208 102 102 102 1.0
17852 0.583166 -0.266533 0.411123 102 102 102 1.0
17853 0.118236 -0.591182 0.363476 102 102 102 1.0
17854 -0.350701 -0.486974 0.360135 102 102 102 1.0
17855 -0.182365 0.394790 0.189116 102 102 102 1.0
17856 0.763527 0.318637 0.684503 102 102 102 1.0
17857 -0.979960 0.595190 1.314573 102 102 102 1.0
17858 0.386774 0.939880 1.032968 102 102 102 1.0
17859 0.446894 -0.563126 0.516825 102 102 102 1.0
17860 0.346693 -0.046092 0.122321 102 102 102 1.0
17861 0.210421 0.523046 0.317854 102 102 102 1.0
17862 -0.807615 -0.663327 1.092245 102 102 102 1.0
17863 -0.386774 0.262525 0.218513 102 102 102 1.0
17864 -0.879759 -0.655311 1.203409 102 102 102 1.0
17865 0.254509 0.571142 0.390978 102 102 102 1.0
17866 0.226453 0.939880 0.934655 102 102 102 1.0
17867 0.330661 0.795591 0.742302 102 102 102 1.0
17868 -0.743487 -0.010020 0.552873 102 102 102 1.0
17869 -0.731463 -0.967936 1.471938 102 102 102 1.0
17870 -0.903808 -0.951904 1.722989 102 102 102 1.0
17871 -0.078156 0.070140 0.011028 102 102 102 1.0
17872 0.891784 -0.382766 0.941787 102 102 102 1.0
17873 -0.771543 0.987976 1.571375 102 102 102 1.0
17874 0.206413 -0.494990 0.287621 102 102 102 1.0
17875 -0.687375 0.979960 1.432806 102 102 102 1.0
17876 0.631263 -0.062124 0.402352 102 102 102 1.0
17877 -0.795591 0.587174 0.977739 102 102 102 1.0
17878 -0.739479 -0.827655 1.231842 102 102 102 1.0
17879 0.202405 0.719439 0.558560 102 102 102 1.0
17880 0.919840 0.711423 1.352227 102 102 102 1.0
17881 -0.611222 -0.715431 0.885434 102 102 102 1.0
17882 0.490982 0.623246 0.629499 102 102 102 1.0
17883 0.042084 0.490982 0.242834 102 102 102 1.0
17884 -0.326653 -0.390782 0.259413 102 102 102 1.0
17885 0.563126 0.074148 0.322609 102 102 102 1.0
17886 -0.486974 -0.691383 0.715154 102 102 102 1.0
17887 -0.150301 -0.855711 0.754832 102 102 102 1.0
17888 0.899800 -0.106212 0.820920 102 102 102 1.0
17889 0.555110 -0.298597 0.397308 102 102 102 1.0
17890 -0.763527 0.218437 0.630688 102 102 102 1.0
17891 0.803607 -0.831663 1.337448 102 102 102 1.0
17892 0.647295 0.579158 0.754415 102 102 102 1.0
17893 -0.563126 0.006012 0.317147 102 102 102 1.0
17894 0.603206 0.314629 0.462850 102 102 102 1.0
17895 -0.939880 0.318637 0.984904 102 102 102 1.0
17896 0.098196 -0.046092 0.011767 102 102 102 1.0
17897 0.975952 -0.883768 1.733527 102 102 102 1.0
17898 -0.775551 -0.695391 1.085048 102 102 102 1.0
17899 0.751503 -0.847695 1.283344 102 102 102 1.0
17900 0.503006 -0.050100 0.255525 102 102 102 1.0
17901 -0.434870 -0.939880 1.072486 102 102 102 1.0
17902 -0.947896 0.647295 1.317497 102 102 102 1.0
17903 -0.166333 -0.815631 0.692921 102 102 102 1.0
17904 -0.206413 -0.154309 0.066417 102 102 102 1.0
17905 0.250501 0.555110 0.370898 102 102 102 1.0
17906 0.122244 -0.466934 0.232971 102 102 102 1.0
17907 0.270541 -0.206413 0.115799 102 102 102 1.0
17908 -0.222445 -0.474950 0.275059 102 102 102 1.0
17909 0.406814 -0.318637 0.267027 102 102 102 1.0
17910 0.895792 -0.511022 1.063586 102 102 102 1.0
17911 -0.659319 -0.254509 0.499476 102 102 102 1.0
17912 0.671343 -0.046092 0.452825 102 102 102 1.0
17913 -0.719439 0.210421 0.561869 102 102 102 1.0
17914 0.106212 0.258517 0.078112 102 102 102 1.0
17915 -0.579158 -0.967936 1.272324 102 102 102 1.0
17916 0.527054 -0.931864 1.146156 102 102 102 1.0
17917 0.170341 -0.803607 0.674801 102 102 102 1.0
17918 -0.102204 0.783567 0.624423 102 102 102 1.0
17919 -0.831663 -0.322645 0.795764 102 102 102 1.0
17920 -0.002004 -0.378758 0.143461 102 102 102 1.0
17921 0.234469 -0.535070 0.341276 102 102 102 1.0
17922 -0.186373 -0.787575 0.655009 102 102 102 1.0
17923 -0.683367 0.711423 0.973113 102 102 102 1.0
17924 -0.294589 -0.494990 0.331798 102 102 102 1.0
17925 0.062124 -0.382766 0.150369 102 102 102 1.0
17926 0.755511 -0.050100 0.573307 102 102 102 1.0
17927 -0.258517 -0.751503 0.631588 102 102 102 1.0
17928 -0.515030 0.186373 0.299991 102 102 102 1.0
17929 -0.302605 0.811623 0.750302 102 102 102 1.0
17930 0.082164 -0.911824 0.838173 102 102 102 1.0
17931 0.691383 0.575150 0.808808 102 102 102 1.0
17932 -0.138277 0.539078 0.309726 102 102 102 1.0
17933 -0.779559 0.843687 1.319521 102 102 102 1.0
17934 -0.298597 -0.038076 0.090610 102 102 102 1.0
17935 0.919840 -0.234469 0.901081 102 102 102 1.0
17936 0.547094 0.819639 0.971121 102 102 102 1.0
17937 -0.106212 -0.142285 0.031526 102 102 102 1.0
17938 0.651303 -0.867735 1.177160 102 102 102 1.0
17939 -0.226453 -0.787575 0.671556 102 102 102 1.0
17940 0.462926 0.378758 0.357758 102 102 102 1.0
17941 0.691383 -0.318637 0.579540 102 102 102 1.0
17942 -0.935872 -0.767535 1.464966 102 102 102 1.0
17943 -0.507014 -0.551102 0.560777 102 102 102 1.0
17944 -0.635271 -0.559118 0.716182 102 102 102 1.0
17945 0.531062 0.527054 0.559813 102 102 102 1.0
17946 0.222445 -0.687375 0.521966 102 102 102 1.0
17947 -0.923848 0.438878 1.046108 102 102 102 1.0
17948 0.835671 0.735471 1.239264 102 102 102 1.0
17949 -0.470942 -0.494990 0.466801 102 102 102 1.0
17950 -0.382766 0.170341 0.175525 102 102 102 1.0
17951 0.727455 -0.887776 1.317336 102 102 102 1.0
17952 -0.386774 -0.234469 0.204569 102 102 102 1.0
17953 -0.799599 -0.342685 0.756792 102 102 102 1.0
17954 0.831663 -0.454910 0.898607 102 102 102 1.0
17955 0.158317 -0.118236 0.039044 102 102 102 1.0
17956 -0.671343 0.006012 0.450737 102 102 102 1.0
17957 -0.915832 0.947896 1.737254 102 102 102 1.0
17958 -0.038076 -0.779559 0.609162 102 102 102 1.0
17959 0.266533 0.310621 0.167525 102 102 102 1.0
17960 -0.118236 -0.306613 0.107992 102 102 102 1.0
17961 0.130261 0.847695 0.735555 102 102 102 1.0
17962 0.306613 0.843687 0.805820 102 102 102 1.0
17963 -0.771543 0.342685 0.712712 102 102 102 1.0
17964 0.246493 0.054108 0.063686 102 102 102 1.0
17965 -0.771543 -0.410822 0.764053 102 102 102 1.0
17966 0.030060 0.839679 0.705965 102 102 102 1.0
17967 -0.030060 -0.250501 0.063654 102 102 102 1.0
17968 -0.559118 -0.326653 0.419316 102 102 102 1.0
17969 0.070140 0.591182 0.354416 102 102 102 1.0
17970 0.266533 0.547094 0.370352 102 102 102 1.0
17971 0.719439 0.571142 0.843796 102 102 102 1.0
17972 -0.038076 -0.795591 0.634415 102 102 102 1.0
17973 0.775551 0.915832 1.440227 102 102 102 1.0
17974 -0.370741 0.122244 0.152393 102 102 102 1.0
17975 0.062124 0.010020 0.003960 102 102 102 1.0
17976 0.386774 0.414830 0.321677 102 102 102 1.0
17977 0.763527 -0.563126 0.900085 102 102 102 1.0
17978 0.390782 -0.486974 0.389854 102 102 102 1.0
17979 0.486974 -0.615230 0.615652 102 102 102 1.0
17980 0.206413 0.823647 0.721001 102 102 102 1.0
17981 0.034068 -0.238477 0.058032 102 102 102 1.0
17982 0.851703 -0.799599 1.364758 102 102 102 1.0
17983 -0.699399 0.803607 1.134943 102 102 102 1.0
17984 -0.378758 0.430862 0.329099 102 102 102 1.0
17985 0.691383 0.551102 0.781724 102 102 102 1.0
17986 0.823647 0.090180 0.686527 102 102 102 1.0
17987 -0.398798 -0.931864 1.027410 102 102 102 1.0
17988 -0.983968 -0.354709 1.094012 102 102 102 1.0
17989 -0.270541 -0.587174 0.417966 102 102 102 1.0
17990 0.374750 -0.430862 0.326079 102 102 102 1.0
17991 -0.162325 0.763527 0.609323 102 102 102 1.0
17992 -0.627254 0.519038 0.662849 102 102 102 1.0
17993 0.486974 0.995992 1.229144 102 102 102 1.0
17994 -0.667335 0.595190 0.799587 102 102 102 1.0
17995 0.699399 -0.310621 0.585644 102 102 102 1.0
17996 -0.531062 0.971944 1.226702 102 102 102 1.0
17997 0.739479 0.567134 0.868470 102 102 102 1.0
17998 -0.567134 -0.194389 0.359428 102 102 102 1.0
17999 -0.002004 0.442886 0.196152 102 102 102 1.0
18000 0.450902 -0.995992 1.195312 102 102 102 1.0
18001 -0.727455 -0.547094 0.828503 102 102 102 1.0
18002 0.531062 -0.446894 0.481741 102 102 102 1.0
18003 0.783567 0.719439 1.131570 102 102 102 1.0
18004 0.138277 0.567134 0.340762 102 102 102 1.0
18005 0.350701 -0.539078 0.413597 102 102 102 1.0
18006 -0.799599 -0.843687 1.351167 102 102 102 1.0
18007 -0.342685 0.819639 0.789242 102 102 102 1.0
18008 0.687375 -0.771543 1.067763 102 102 102 1.0
18009 -0.138277 -0.831663 0.710784 102 102 102 1.0
18010 -0.014028 -0.695391 0.483765 102 102 102 1.0
18011 -0.775551 -0.567134 0.923121 102 102 102 1.0
18012 0.114228 0.943888 0.903972 102 102 102 1.0
18013 0.246493 0.346693 0.180955 102 102 102 1.0
18014 -0.426854 0.559118 0.494817 102 102 102 1.0
18015 -0.398798 -0.947896 1.057546 102 102 102 1.0
18016 -0.651303 -0.354709 0.550014 102 102 102 1.0
18017 -0.394790 0.326653 0.262561 102 102 102 1.0
18018 -0.799599 -0.414830 0.811443 102 102 102 1.0
18019 -0.430862 0.418838 0.361067 102 102 102 1.0
18020 0.851703 0.474950 0.950976 102 102 102 1.0
18021 0.675351 0.010020 0.456199 102 102 102 1.0
18022 -0.507014 0.823647 0.935458 102 102 102 1.0
18023 0.454910 0.863727 0.952968 102 102 102 1.0
18024 -0.871744 -0.895792 1.562379 102 102 102 1.0
18025 -0.551102 -0.835671 1.002060 102 102 102 1.0
18026 -0.462926 0.603206 0.578158 102 102 102 1.0
18027 0.899800 0.815631 1.474894 102 102 102 1.0
18028 0.494990 -0.947896 1.143522 102 102 102 1.0
18029 -0.410822 -0.963928 1.097931 102 102 102 1.0
18030 -0.186373 -0.298597 0.123895 102 102 102 1.0
18031 0.102204 0.010020 0.010546 102 102 102 1.0
18032 0.378758 -0.002004 0.143461 102 102 102 1.0
18033 0.875751 -0.398798 0.925980 102 102 102 1.0
18034 0.406814 0.555110 0.473645 102 102 102 1.0
18035 -0.194389 0.739479 0.584616 102 102 102 1.0
18036 -0.711423 -0.779559 1.113835 102 102 102 1.0
18037 0.823647 -0.979960 1.638716 102 102 102 1.0
18038 0.615230 -0.338677 0.493211 102 102 102 1.0
18039 -0.086172 0.607214 0.376135 102 102 102 1.0
18040 0.382766 -0.474950 0.372087 102 102 102 1.0
18041 -0.278557 0.434870 0.266706 102 102 102 1.0
18042 0.322645 0.923848 0.957595 102 102 102 1.0
18043 -0.278557 -0.290581 0.162031 102 102 102 1.0
18044 0.747495 0.883768 1.339794 102 102 102 1.0
18045 -0.707415 0.619238 0.883892 102 102 102 1.0
18046 -0.947896 0.991984 1.882539 102 102 102 1.0
18047 0.907816 -0.050100 0.826639 102 102 102 1.0
18048 -0.979960 0.006012 0.960358 102 102 102 1.0
18049 0.114228 -0.266533 0.084088 102 102 102 1.0
18050 0.394790 0.535070 0.442159 102 102 102 1.0
18051 -0.090180 -0.418838 0.183557 102 102 102 1.0
18052 -0.923848 -0.935872 1.729350 102 102 102 1.0
18053 -0.827655 0.707415 1.185449 102 102 102 1.0
18054 0.863727 -0.238477 0.802896 102 102 102 1.0
18055 0.603206 -0.370741 0.501307 102 102 102 1.0
18056 0.747495 0.555110 0.866896 102 102 102 1.0
18057 -0.482966 -0.591182 0.582753 102 102 102 1.0
18058 0.334669 0.014028 0.112200 102 102 102 1.0
18059 -0.735471 -0.635271 0.944486 102 102 102 1.0
18060 0.819639 0.410822 0.840583 102 102 102 1.0
18061 -0.366733 0.875751 0.901434 102 102 102 1.0
18062 -0.567134 0.006012 0.321677 102 102 102 1.0
18063 -0.130261 -0.318637 0.118498 102 102 102 1.0
18064 -0.971944 -0.046092 0.946799 102 102 102 1.0
18065 0.523046 -0.607214 0.642287 102 102 102 1.0
18066 0.086172 -0.647295 0.426416 102 102 102 1.0
18067 0.474950 -0.314629 0.324569 102 102 102 1.0
18068 0.875751 0.899800 1.576580 102 102 102 1.0
18069 0.154309 -0.539078 0.314416 102 102 102 1.0
18070 -0.615230 0.286573 0.460633 102 102 102 1.0
18071 -0.150301 0.835671 0.720937 102 102 102 1.0
18072 -0.410822 -0.971944 1.113449 102 102 102 1.0
18073 0.038076 -0.282565 0.081293 102 102 102 1.0
18074 0.126253 -0.054108 0.018867 102 102 102 1.0
18075 0.951904 0.895792 1.708563 102 102 102 1.0
18076 0.330661 0.314629 0.208328 102 102 102 1.0
18077 -0.591182 0.903808 1.166365 102 102 102 1.0
18078 -0.939880 0.659319 1.318075 102 102 102 1.0
18079 0.755511 0.118236 0.584777 102 102 102 1.0
18080 -0.995992 -0.470942 1.213786 102 102 102 1.0
18081 0.595190 -0.595190 0.708503 102 102 102 1.0
18082 -0.919840 0.006012 0.846141 102 102 102 1.0
18083 -0.170341 0.222445 0.078498 102 102 102 1.0
18084 -0.378758 -0.206413 0.186064 102 102 102 1.0
18085 -0.114228 0.482966 0.246304 102 102 102 1.0
18086 -0.687375 0.691383 0.950494 102 102 102 1.0
18087 0.883768 -0.374750 0.921482 102 102 102 1.0
18088 -0.551102 0.342685 0.421147 102 102 102 1.0
18089 0.170341 0.454910 0.235959 102 102 102 1.0
18090 -0.623246 0.362725 0.520006 102 102 102 1.0
18091 0.294589 0.911824 0.918205 102 102 102 1.0
18092 -0.915832 -0.991984 1.822780 102 102 102 1.0
18093 0.655311 0.551102 0.733146 102 102 102 1.0
18094 -0.663327 -0.587174 0.784776 102 102 102 1.0
18095 -0.635271 0.322645 0.507669 102 102 102 1.0
18096 0.711423 -0.671343 0.956823 102 102 102 1.0
18097 0.462926 0.807615 0.866543 102 102 102 1.0
18098 0.078156 0.014028 0.006305 102 102 102 1.0
18099 0.507014 0.883768 1.038108 102 102 102 1.0
18100 -0.078156 -0.422846 0.184907 102 102 102 1.0
18101 -0.983968 -0.803607 1.613977 102 102 102 1.0
18102 0.462926 0.907816 1.038430 102 102 102 1.0
18103 -0.519038 -0.567134 0.591042 102 102 102 1.0
18104 -0.054108 -0.763527 0.585901 102 102 102 1.0
18105 -0.847695 0.110220 0.730736 102 102 102 1.0
18106 0.503006 -0.190381 0.289260 102 102 102 1.0
18107 0.643287 0.755511 0.984614 102 102 102 1.0
18108 -0.859719 -0.695391 1.222686 102 102 102 1.0
18109 0.807615 -0.178357 0.684053 102 102 102 1.0
18110 -0.923848 -0.162325 0.879844 102 102 102 1.0
18111 0.270541 0.118236 0.087172 102 102 102 1.0
18112 -0.278557 -0.230461 0.130706 102 102 102 1.0
18113 0.907816 0.194389 0.861916 102 102 102 1.0
18114 0.002004 0.062124 0.003863 102 102 102 1.0
18115 -0.130261 0.523046 0.290545 102 102 102 1.0
18116 0.963928 -0.234469 0.984133 102 102 102 1.0
18117 -0.927856 -0.186373 0.895651 102 102 102 1.0
18118 -0.410822 0.302605 0.260344 102 102 102 1.0
18119 0.619238 0.198397 0.422818 102 102 102 1.0
18120 -0.034068 0.699399 0.490319 102 102 102 1.0
18121 0.887776 -0.755511 1.358942 102 102 102 1.0
18122 -0.735471 0.847695 1.259505 102 102 102 1.0
18123 0.186373 0.783567 0.648712 102 102 102 1.0
18124 0.599198 0.859719 1.098156 102 102 102 1.0
18125 -0.843687 0.098196 0.721451 102 102 102 1.0
18126 0.783567 0.134269 0.632006 102 102 102 1.0
18127 -0.442886 0.178357 0.227959 102 102 102 1.0
18128 0.066132 0.507014 0.261437 102 102 102 1.0
18129 -0.334669 0.527054 0.389790 102 102 102 1.0
18130 0.587174 0.366733 0.479267 102 102 102 1.0
18131 -0.819639 -0.983968 1.640001 102 102 102 1.0
18132 0.034068 0.635271 0.404729 102 102 102 1.0
18133 -0.547094 0.162325 0.325661 102 102 102 1.0
18134 0.551102 0.975952 1.256196 102 102 102 1.0
18135 0.995992 -0.755511 1.562797 102 102 102 1.0
18136 -0.955912 0.687375 1.386251 102 102 102 1.0
18137 0.531062 -0.919840 1.128132 102 102 102 1.0
18138 -0.398798 -0.783567 0.773017 102 102 102 1.0
18139 0.615230 -0.194389 0.416296 102 102 102 1.0
18140 -0.258517 -0.094188 0.075703 102 102 102 1.0
18141 -0.839679 0.074148 0.710559 102 102 102 1.0
18142 0.643287 0.254509 0.478592 102 102 102 1.0
18143 -0.815631 0.002004 0.665258 102 102 102 1.0
18144 0.587174 -0.799599 0.984133 102 102 102 1.0
18145 -0.066132 -0.543086 0.299316 102 102 102 1.0
18146 0.851703 0.883768 1.506444 102 102 102 1.0
18147 0.294589 -0.707415 0.587219 102 102 102 1.0
18148 -0.791583 0.679359 1.088132 102 102 102 1.0
18149 0.635271 -0.875751 1.170509 102 102 102 1.0
18150 -0.490982 -0.711423 0.747186 102 102 102 1.0
18151 0.386774 -0.086172 0.157019 102 102 102 1.0
18152 0.847695 0.326653 0.825290 102 102 102 1.0
18153 -0.038076 -0.887776 0.789595 102 102 102 1.0
18154 0.098196 0.611222 0.383235 102 102 102 1.0
18155 -0.707415 -0.218437 0.548150 102 102 102 1.0
18156 0.783567 -0.282565 0.693821 102 102 102 1.0
18157 -0.503006 0.635271 0.656584 102 102 102 1.0
18158 -0.290581 -0.498998 0.333436 102 102 102 1.0
18159 -0.282565 -0.186373 0.114578 102 102 102 1.0
18160 -0.763527 -0.086172 0.590399 102 102 102 1.0
18161 0.170341 -0.350701 0.152007 102 102 102 1.0
18162 0.130261 0.078156 0.023076 102 102 102 1.0
18163 -0.571142 0.154309 0.350015 102 102 102 1.0
18164 0.775551 -0.218437 0.649194 102 102 102 1.0
18165 0.174349 0.122244 0.045341 102 102 102 1.0
18166 -0.823647 0.819639 1.350203 102 102 102 1.0
18167 0.366733 0.286573 0.216618 102 102 102 1.0
18168 0.494990 0.306613 0.339027 102 102 102 1.0
18169 0.286573 -0.767535 0.671234 102 102 102 1.0
18170 0.366733 -0.851703 0.859892 102 102 102 1.0
18171 0.386774 0.498998 0.398593 102 102 102 1.0
18172 0.202405 -0.891784 0.836246 102 102 102 1.0
18173 -0.859719 -0.575150 1.069915 102 102 102 1.0
18174 -0.094188 -0.070140 0.013791 102 102 102 1.0
18175 0.667335 -0.923848 1.298830 102 102 102 1.0
18176 -0.242485 0.402806 0.221051 102 102 102 1.0
18177 0.446894 -0.607214 0.568423 102 102 102 1.0
18178 -0.322645 -0.422846 0.282898 102 102 102 1.0
18179 -0.579158 0.402806 0.497677 102 102 102 1.0
18180 0.026052 0.895792 0.803121 102 102 102 1.0
18181 0.935872 -0.282565 0.955699 102 102 102 1.0
18182 -0.575150 0.246493 0.391557 102 102 102 1.0
18183 0.430862 0.262525 0.254561 102 102 102 1.0
18184 0.426854 0.394790 0.338063 102 102 102 1.0
18185 -0.278557 0.210421 0.121871 102 102 102 1.0
18186 0.482966 0.579158 0.568680 102 102 102 1.0
18187 -0.134269 -0.531062 0.300055 102 102 102 1.0
18188 -0.250501 0.883768 0.843796 102 102 102 1.0
18189 0.450902 0.987976 1.179409 102 102 102 1.0
18190 -0.727455 0.126253 0.545130 102 102 102 1.0
18191 -0.450902 0.535070 0.489612 102 102 102 1.0
18192 -0.414830 -0.306613 0.266095 102 102 102 1.0
18193 -0.663327 -0.623246 0.828438 102 102 102 1.0
18194 0.026052 -0.623246 0.389115 102 102 102 1.0
18195 -0.194389 0.042084 0.039558 102 102 102 1.0
18196 0.579158 -0.250501 0.398175 102 102 102 1.0
18197 -0.430862 0.082164 0.192393 102 102 102 1.0
18198 0.070140 -0.755511 0.575717 102 102 102 1.0
18199 -0.971944 0.134269 0.962703 102 102 102 1.0
18200 0.026052 0.823647 0.679074 102 102 102 1.0
18201 -0.274549 -0.054108 0.078305 102 102 102 1.0
18202 -0.386774 0.202405 0.190561 102 102 102 1.0
18203 -0.723447 -0.010020 0.523476 102 102 102 1.0
18204 0.070140 -0.414830 0.177003 102 102 102 1.0
18205 -0.895792 0.142285 0.822687 102 102 102 1.0
18206 -0.478958 -0.314629 0.328392 102 102 102 1.0
18207 0.667335 0.779559 1.053048 102 102 102 1.0
18208 0.098196 0.767535 0.598753 102 102 102 1.0
18209 -0.583166 -0.422846 0.518881 102 102 102 1.0
18210 0.438878 -0.759519 0.769483 102 102 102 1.0
18211 0.378758 0.298597 0.232618 102 102 102 1.0
18212 -0.054108 -1.000000 1.002928 102 102 102 1.0
18213 0.643287 -0.507014 0.670881 102 102 102 1.0
18214 -0.282565 -0.643287 0.493661 102 102 102 1.0
18215 -0.050100 0.006012 0.002546 102 102 102 1.0
18216 0.278557 -0.194389 0.115381 102 102 102 1.0
18217 -0.118236 -0.891784 0.809258 102 102 102 1.0
18218 -0.559118 0.751503 0.877370 102 102 102 1.0
18219 -0.266533 -0.555110 0.379187 102 102 102 1.0
18220 -0.278557 0.114228 0.090642 102 102 102 1.0
18221 0.450902 0.222445 0.252794 102 102 102 1.0
18222 -0.482966 0.819639 0.905065 102 102 102 1.0
18223 -0.871744 -0.498998 1.008936 102 102 102 1.0
18224 -0.503006 -0.118236 0.266995 102 102 102 1.0
18225 0.831663 -0.106212 0.702945 102 102 102 1.0
18226 0.731463 0.927856 1.395954 102 102 102 1.0
18227 0.575150 -0.811623 0.989530 102 102 102 1.0
18228 0.711423 0.274549 0.581500 102 102 102 1.0
18229 0.687375 0.883768 1.253529 102 102 102 1.0
18230 -0.831663 -0.551102 0.995378 102 102 102 1.0
18231 0.687375 -0.951904 1.378605 102 102 102 1.0
18232 0.310621 0.006012 0.096522 102 102 102 1.0
18233 -0.482966 -0.222445 0.282738 102 102 102 1.0
18234 0.190381 -0.190381 0.072490 102 102 102 1.0
18235 0.667335 -0.358717 0.574014 102 102 102 1.0
