ply
format ascii 1.0
comment synthetic polynomial dataset
element vertex 1194
property float x
property float y
property float z
property uchar red
property uchar green
property uchar blue
end_header
0.529530 -0.623624 0.669308 102 102 102
-0.239239 -0.045045 0.059264 102 102 102
-0.979980 -0.293293 1.046382 102 102 102
0.887888 -0.639640 1.197484 102 102 102
0.675676 -0.749750 1.018662 102 102 102
-0.919920 0.423423 1.025540 102 102 102
-0.297297 -0.903904 0.905428 102 102 102
-0.205205 -0.205205 0.084218 102 102 102
-0.977978 -0.403403 1.119175 102 102 102
-0.811812 -0.439439 0.852145 102 102 102
-0.483483 0.517518 0.501581 102 102 102
-0.497497 0.181181 0.280330 102 102 102
0.239239 -0.411411 0.226495 102 102 102
0.761762 -0.693694 1.061492 102 102 102
0.781782 -0.369369 0.747616 102 102 102
0.039039 0.341341 0.118038 102 102 102
0.609610 -0.763764 0.954959 102 102 102
-0.621622 -0.089089 0.394350 102 102 102
0.947948 -0.141141 0.918526 102 102 102
0.915916 -0.005005 0.838927 102 102 102
0.657658 -0.457457 0.641781 102 102 102
0.955956 0.707708 1.414702 102 102 102
-0.507508 0.015015 0.257789 102 102 102
-0.299299 0.265265 0.159946 102 102 102
-0.239239 0.247247 0.118367 102 102 102
-0.987988 -0.979980 1.936481 102 102 102
-0.591592 -0.833834 1.045259 102 102 102
-0.101101 -0.925926 0.867560 102 102 102
-0.371371 0.941942 1.025171 102 102 102
0.993994 -0.193193 1.025348 102 102 102
0.669670 -0.839840 1.153788 102 102 102
0.091091 0.635636 0.412330 102 102 102
-0.943944 0.045045 0.893059 102 102 102
-0.139139 0.627628 0.413276 102 102 102
0.533534 0.907908 1.108955 102 102 102
0.821822 -0.773774 1.274117 102 102 102
-0.657658 -0.903904 1.249556 102 102 102
-0.613614 -0.381381 0.521973 102 102 102
-0.505506 0.425425 0.436523 102 102 102
0.993994 0.831832 1.679968 102 102 102
0.973974 -0.687688 1.421540 102 102 102
0.547548 0.349349 0.421853 102 102 102
0.415415 0.639640 0.581709 102 102 102
-0.963964 0.605606 1.295985 102 102 102
-0.381381 -0.311311 0.242366 102 102 102
0.077077 -0.215215 0.052258 102 102 102
0.663664 -0.983984 1.408674 102 102 102
-0.003003 0.529530 0.280411 102 102 102
-0.661662 0.941942 1.325051 102 102 102
-0.781782 -0.741742 1.161364 102 102 102
-0.203203 0.503504 0.294807 102 102 102
0.125125 0.623624 0.404563 102 102 102
0.427427 -0.835836 0.881316 102 102 102
-0.313313 0.827828 0.783464 102 102 102
0.187187 -0.541542 0.328306 102 102 102
0.279279 -0.581582 0.416234 102 102 102
-0.947948 -0.135135 0.916867 102 102 102
-0.801802 0.911912 1.474469 102 102 102
-0.615616 0.127127 0.395144 102 102 102
0.907908 -0.995996 1.816305 102 102 102
0.587588 -0.207207 0.388194 102 102 102
0.479479 -0.947948 1.128506 102 102 102
-0.095095 -0.917918 0.851616 102 102 102
-0.561562 0.679680 0.777316 102 102 102
-0.653654 0.321321 0.530510 102 102 102
-0.653654 0.581582 0.765500 102 102 102
0.633634 -0.885886 1.186285 102 102 102
0.265265 0.415415 0.242936 102 102 102
-0.575576 0.399399 0.490807 102 102 102
-0.915916 -0.061061 0.842630 102 102 102
-0.053053 0.199199 0.042495 102 102 102
-0.901902 -0.181181 0.846254 102 102 102
0.963964 0.907908 1.753523 102 102 102
-0.455455 -0.495495 0.452955 102 102 102
0.593594 -0.649650 0.774398 102 102 102
0.351351 0.339339 0.238599 102 102 102
-0.693694 -0.877878 1.251881 102 102 102
0.471471 0.111111 0.234631 102 102 102
-0.445445 -0.797798 0.834903 102 102 102
0.539540 0.055055 0.294134 102 102 102
0.317317 0.017017 0.100980 102 102 102
0.333333 -0.523524 0.385188 102 102 102
-0.577578 -0.707708 0.834446 102 102 102
-0.043043 0.923924 0.855488 102 102 102
-0.599600 -0.343343 0.477404 102 102 102
-0.021021 -0.137137 0.019248 102 102 102
-0.275275 0.047047 0.077990 102 102 102
0.741742 0.255255 0.615336 102 102 102
0.989990 -0.633634 1.381572 102 102 102
0.087087 -0.737738 0.551841 102 102 102
0.267267 0.527528 0.349717 102 102 102
-0.651652 0.825826 1.106638 102 102 102
0.487487 -0.753754 0.805789 102 102 102
0.561562 0.561562 0.630703 102 102 102
-0.959960 -0.341341 1.038037 102 102 102
0.343343 -0.345345 0.237148 102 102 102
-0.769770 0.637638 0.999127 102 102 102
-0.433433 -0.931932 1.056362 102 102 102
0.431431 0.037037 0.187505 102 102 102
0.623624 0.113113 0.401701 102 102 102
-0.443443 0.821822 0.872033 102 102 102
-0.001001 -0.609610 0.371625 102 102 102
-0.227227 -0.151151 0.074479 102 102 102
-0.759760 -0.069069 0.582005 102 102 102
0.019019 -0.705706 0.498382 102 102 102
0.247247 -0.989990 1.041211 102 102 102
0.309309 -0.761762 0.675953 102 102 102
0.475475 -0.287287 0.308611 102 102 102
-0.195195 -0.147147 0.059753 102 102 102
-0.179179 -0.903904 0.849147 102 102 102
-0.041041 -0.299299 0.091264 102 102 102
-0.491491 0.259259 0.308779 102 102 102
0.413413 -0.255255 0.236066 102 102 102
0.335335 0.291291 0.197300 102 102 102
-0.937938 0.175175 0.910414 102 102 102
-0.087087 0.297297 0.095970 102 102 102
-0.277277 -0.491491 0.318447 102 102 102
-0.859860 -0.841842 1.448057 102 102 102
0.561562 -0.335335 0.427801 102 102 102
0.815816 -0.951952 1.571768 102 102 102
0.219219 -0.565566 0.367921 102 102 102
-0.179179 0.681682 0.496795 102 102 102
-0.519520 -0.961962 1.195271 102 102 102
0.785786 0.973974 1.566085 102 102 102
0.471471 -0.997998 1.218285 102 102 102
-0.153153 -0.579580 0.359368 102 102 102
0.721722 -0.169169 0.549500 102 102 102
-0.073073 0.529530 0.285741 102 102 102
-0.581582 0.961962 1.263608 102 102 102
-0.541542 -0.165165 0.320547 102 102 102
-0.453453 0.971972 1.150349 102 102 102
-0.187187 0.825826 0.717027 102 102 102
0.529530 0.167167 0.308346 102 102 102
0.687688 -0.567568 0.795047 102 102 102
0.083083 -0.245245 0.067048 102 102 102
-0.085085 -0.569570 0.331649 102 102 102
-0.637638 0.533534 0.691240 102 102 102
-0.337337 -0.175175 0.144483 102 102 102
-0.353353 -0.495495 0.370374 102 102 102
-0.297297 0.335335 0.200835 102 102 102
0.439439 -0.929930 1.057877 102 102 102
-0.509510 0.963964 1.188826 102 102 102
-0.141141 0.391391 0.173108 102 102 102
-0.415415 0.743744 0.725725 102 102 102
-0.119119 0.805806 0.663512 102 102 102
-0.087087 -0.619620 0.391513 102 102 102
-0.395395 0.575576 0.487625 102 102 102
0.417417 0.513514 0.437933 102 102 102
-0.425425 0.725726 0.707665 102 102 102
-0.283283 -0.415415 0.252819 102 102 102
0.505506 0.087087 0.263120 102 102 102
-0.725726 0.601602 0.888602 102 102 102
-0.861862 -0.995996 1.734814 102 102 102
-0.069069 -0.497497 0.252274 102 102 102
-0.623624 -0.291291 0.473757 102 102 102
-0.693694 0.807808 1.133764 102 102 102
0.209209 -0.701702 0.536154 102 102 102
0.865866 0.025025 0.750350 102 102 102
0.687688 -0.971972 1.417644 102 102 102
0.029029 -0.477477 0.228827 102 102 102
-0.827828 -0.935936 1.561275 102 102 102
-0.617618 0.443443 0.578094 102 102 102
0.923924 0.831832 1.545580 102 102 102
0.205205 0.803804 0.688210 102 102 102
0.491491 -0.365365 0.375056 102 102 102
0.285285 -0.845846 0.796843 102 102 102
-0.263263 -0.493493 0.312843 102 102 102
0.769770 0.509510 0.852145 102 102 102
0.011011 -0.247247 0.061252 102 102 102
-0.089089 -0.051051 0.010543 102 102 102
0.837838 0.421421 0.879568 102 102 102
0.723724 0.735736 1.065083 102 102 102
0.371371 0.933934 1.010149 102 102 102
-0.445445 0.855856 0.930911 102 102 102
0.033033 0.799800 0.640771 102 102 102
-0.429429 -0.319319 0.286374 102 102 102
0.615616 0.783784 0.993300 102 102 102
0.507508 -0.517518 0.525388 102 102 102
-0.377377 0.577578 0.476010 102 102 102
-0.579580 -0.769770 0.928458 102 102 102
0.729730 0.629630 0.928939 102 102 102
0.215215 0.371371 0.184234 102 102 102
-0.219219 -0.565566 0.367921 102 102 102
-0.319319 0.555556 0.410607 102 102 102
0.103103 0.827828 0.695929 102 102 102
-0.199199 0.137137 0.058487 102 102 102
0.273273 -0.377377 0.217092 102 102 102
-0.975976 -0.523524 1.226606 102 102 102
0.019019 0.337337 0.114158 102 102 102
-0.745746 -0.575576 0.887424 102 102 102
0.433433 0.837838 0.889837 102 102 102
0.279279 -0.807808 0.730550 102 102 102
0.163163 -0.715716 0.538871 102 102 102
-0.365365 0.113113 0.146286 102 102 102
-0.199199 -0.425425 0.220667 102 102 102
0.399399 -0.167167 0.187465 102 102 102
-0.161161 0.943944 0.917003 102 102 102
0.831832 -0.691692 1.170382 102 102 102
-0.889890 0.693694 1.273115 102 102 102
-0.423423 -0.173173 0.209276 102 102 102
0.903904 -0.615616 1.196025 102 102 102
0.173173 -0.549550 0.331994 102 102 102
-0.733734 -0.899900 1.348185 102 102 102
-0.585586 0.651652 0.767560 102 102 102
0.705706 0.523524 0.772097 102 102 102
-0.303303 0.873874 0.855648 102 102 102
-0.163163 -0.849850 0.748867 102 102 102
0.435435 -0.371371 0.327521 102 102 102
-0.683684 -0.687688 0.940338 102 102 102
-0.657658 0.993994 1.420538 102 102 102
-0.163163 -0.029029 0.027465 102 102 102
0.861862 -0.323323 0.847344 102 102 102
0.591592 0.145145 0.371048 102 102 102
-0.327327 0.593594 0.459497 102 102 102
0.689690 0.841842 1.184370 102 102 102
-0.105105 -0.087087 0.018631 102 102 102
0.911912 -0.057057 0.834839 102 102 102
0.055055 -0.963964 0.932258 102 102 102
-0.451451 0.743744 0.756963 102 102 102
-0.597598 0.499499 0.606623 102 102 102
-0.967968 -0.747748 1.496089 102 102 102
-0.543544 -0.819820 0.967544 102 102 102
-0.049049 0.805806 0.651729 102 102 102
0.589590 0.277277 0.424499 102 102 102
0.487487 -0.699700 0.727224 102 102 102
-0.753754 -0.431431 0.754278 102 102 102
0.215215 0.801802 0.689204 102 102 102
-0.291291 0.195195 0.122952 102 102 102
0.913914 0.179179 0.867344 102 102 102
0.009009 0.067067 0.004579 102 102 102
0.015015 -0.927928 0.861276 102 102 102
0.737738 0.311311 0.641172 102 102 102
0.469469 0.687688 0.693316 102 102 102
-0.875876 -0.757758 1.341355 102 102 102
0.961962 0.477477 1.153356 102 102 102
-0.547548 0.983984 1.268033 102 102 102
-0.027027 0.115115 0.013982 102 102 102
-0.051051 0.603604 0.366944 102 102 102
-0.845846 -0.739740 1.262670 102 102 102
-0.963964 0.893894 1.728273 102 102 102
-0.551552 -0.005005 0.304234 102 102 102
-0.471471 0.259259 0.289501 102 102 102
0.599600 -0.273273 0.434198 102 102 102
-0.037037 0.129129 0.018046 102 102 102
-0.723724 0.665666 0.966887 102 102 102
-0.091091 -0.527528 0.286583 102 102 102
0.149149 0.093093 0.030912 102 102 102
0.665666 -0.123123 0.458270 102 102 102
-0.253253 0.013013 0.064307 102 102 102
0.155155 -0.029029 0.024916 102 102 102
0.719720 -0.337337 0.631793 102 102 102
0.499499 -0.915916 1.088402 102 102 102
0.441441 -0.521522 0.466855 102 102 102
0.275275 0.469469 0.296178 102 102 102
-0.083083 -0.495495 0.252419 102 102 102
0.285285 0.451451 0.285196 102 102 102
0.383383 0.433433 0.334847 102 102 102
-0.127127 -0.483483 0.249918 102 102 102
-0.803804 0.717718 1.161219 102 102 102
-0.163163 -0.351351 0.150070 102 102 102
-0.315315 0.819820 0.771528 102 102 102
0.399399 0.921922 1.009460 102 102 102
0.023023 -0.899900 0.810350 102 102 102
-0.253253 -0.255255 0.129292 102 102 102
0.111111 0.399399 0.171866 102 102 102
0.007007 0.523524 0.274126 102 102 102
0.689690 -0.349349 0.597717 102 102 102
-0.031031 0.417417 0.175200 102 102 102
-0.981982 0.431431 1.150422 102 102 102
-0.949950 -0.411411 1.071664 102 102 102
-0.177177 -0.607608 0.400579 102 102 102
0.267267 -0.031031 0.072395 102 102 102
-0.329329 -0.677678 0.567705 102 102 102
0.699700 0.479479 0.719480 102 102 102
0.719720 -0.033033 0.519088 102 102 102
0.771772 -0.099099 0.605452 102 102 102
-0.187187 0.719720 0.553035 102 102 102
-0.293293 0.045045 0.088050 102 102 102
0.167167 0.947948 0.926550 102 102 102
-0.065065 0.757758 0.578430 102 102 102
-0.753754 -0.763764 1.151480 102 102 102
0.661662 0.079079 0.444050 102 102 102
-0.145145 -0.129129 0.037741 102 102 102
-0.305305 0.263263 0.162519 102 102 102
-0.865866 0.263263 0.819031 102 102 102
-0.717718 0.353353 0.639977 102 102 102
-0.557558 0.585586 0.653781 102 102 102
-0.549550 0.261261 0.370262 102 102 102
-0.241241 0.025025 0.058824 102 102 102
-0.713714 0.975976 1.461916 102 102 102
-0.905906 0.863864 1.566926 102 102 102
-0.757758 -0.931932 1.442694 102 102 102
0.873874 -0.799800 1.403335 102 102 102
0.815816 -0.531532 0.948081 102 102 102
-0.779780 -0.029029 0.608899 102 102 102
0.023023 -0.705706 0.498551 102 102 102
0.853854 0.529530 1.009468 102 102 102
0.367367 0.623624 0.523865 102 102 102
0.993994 -0.771772 1.583656 102 102 102
-0.467467 0.407407 0.384507 102 102 102
-0.461461 0.717718 0.728065 102 102 102
0.985986 -0.099099 0.981989 102 102 102
0.605606 0.299299 0.456338 102 102 102
0.629630 -0.685686 0.866598 102 102 102
0.527528 -0.203203 0.319577 102 102 102
0.937938 0.689690 1.355399 102 102 102
-0.891892 0.521522 1.067456 102 102 102
-0.773774 0.135135 0.616987 102 102 102
-0.491491 -0.813814 0.903857 102 102 102
-0.963964 0.105105 0.940274 102 102 102
0.597598 0.645646 0.773981 102 102 102
0.843844 -0.209209 0.755841 102 102 102
0.889890 0.991992 1.775952 102 102 102
0.095095 0.743744 0.562198 102 102 102
0.343343 -0.619620 0.501813 102 102 102
0.283283 0.265265 0.150615 102 102 102
0.517518 -0.443443 0.464466 102 102 102
0.339339 0.121121 0.129822 102 102 102
0.369369 0.205205 0.178543 102 102 102
0.735736 0.835836 1.239929 102 102 102
0.967968 0.121121 0.951632 102 102 102
-0.589590 0.757758 0.921813 102 102 102
-0.291291 0.577578 0.418446 102 102 102
-0.283283 -0.973974 1.028875 102 102 102
0.303303 0.081081 0.098567 102 102 102
0.051051 0.705706 0.500627 102 102 102
0.053053 0.039039 0.004339 102 102 102
0.491491 -0.019019 0.241926 102 102 102
-0.867868 -0.761762 1.333476 102 102 102
-0.911912 0.279279 0.909580 102 102 102
-0.051051 0.081081 0.009180 102 102 102
0.983984 -0.023023 0.968755 102 102 102
-0.735736 0.923924 1.394943 102 102 102
-0.619620 -0.287287 0.466462 102 102 102
0.275275 0.439439 0.268883 102 102 102
0.841842 -0.553554 1.015119 102 102 102
0.967968 -0.025025 0.937588 102 102 102
0.239239 0.987988 1.033356 102 102 102
-0.115115 0.623624 0.402158 102 102 102
0.331331 0.589590 0.457396 102 102 102
0.211211 0.257257 0.110791 102 102 102
0.663664 0.309309 0.536122 102 102 102
-0.415415 0.327327 0.279713 102 102 102
-0.807808 0.043043 0.654406 102 102 102
-0.191191 0.855856 0.769043 102 102 102
0.811812 0.909910 1.486974 102 102 102
0.019019 0.931932 0.868859 102 102 102
0.163163 0.359359 0.155761 102 102 102
0.511512 0.295295 0.348843 102 102 102
0.075075 0.501502 0.257140 102 102 102
-0.269269 -0.263263 0.141813 102 102 102
0.279279 -0.829830 0.766614 102 102 102
0.859860 -0.617618 1.120811 102 102 102
-0.435435 -0.851852 0.915256 102 102 102
0.177177 0.261261 0.099649 102 102 102
0.705706 0.751752 1.063151 102 102 102
-0.391391 -0.911912 0.984771 102 102 102
0.103103 -0.509510 0.270230 102 102 102
-0.313313 0.085085 0.105405 102 102 102
0.545546 -0.961962 1.222991 102 102 102
0.341341 0.509510 0.376114 102 102 102
-0.869870 0.635636 1.160706 102 102 102
0.645646 0.979980 1.377219 102 102 102
-0.701702 0.859860 1.231744 102 102 102
-0.659660 0.761762 1.015432 102 102 102
-0.823824 0.081081 0.685260 102 102 102
0.049049 0.055055 0.005437 102 102 102
0.951952 -0.497497 1.153716 102 102 102
-0.043043 -0.311311 0.098767 102 102 102
0.643644 0.777778 1.019215 102 102 102
-0.529530 0.399399 0.439921 102 102 102
0.345345 -0.465465 0.335921 102 102 102
-0.847848 0.229229 0.771392 102 102 102
-0.385385 -0.815816 0.814077 102 102 102
0.949950 0.901902 1.715832 102 102 102
-0.661662 -0.343343 0.555681 102 102 102
0.801802 0.441441 0.837757 102 102 102
-0.865866 0.445445 0.948145 102 102 102
-0.067067 0.705706 0.502519 102 102 102
0.557558 0.791792 0.937805 102 102 102
0.385385 0.287287 0.231056 102 102 102
0.457457 0.847848 0.928113 102 102 102
0.943944 -0.857858 1.626950 102 102 102
-0.251251 -0.257257 0.129308 102 102 102
0.199199 -0.891892 0.835151 102 102 102
0.949950 -0.743744 1.455560 102 102 102
-0.481481 0.555556 0.540466 102 102 102
0.387387 -0.095095 0.159112 102 102 102
0.005005 0.809810 0.655817 102 102 102
0.053053 -0.141141 0.022735 102 102 102
-0.151151 -0.845846 0.738302 102 102 102
-0.277277 0.821822 0.752274 102 102 102
-0.281281 -0.483483 0.312875 102 102 102
-0.701702 0.795796 1.125676 102 102 102
0.747748 0.311311 0.656041 102 102 102
-0.499499 -0.095095 0.258543 102 102 102
-0.393393 0.119119 0.168948 102 102 102
0.735736 -0.139139 0.560667 102 102 102
0.699700 -0.561562 0.804931 102 102 102
-0.701702 0.585586 0.835296 102 102 102
-0.989990 0.797798 1.616562 102 102 102
0.587588 -0.667668 0.791039 102 102 102
0.097097 0.241241 0.067625 102 102 102
0.555556 0.311311 0.405557 102 102 102
-0.681682 0.379379 0.608619 102 102 102
-0.195195 -0.445445 0.236523 102 102 102
-0.483483 0.785786 0.851216 102 102 102
0.961962 -0.851852 1.651022 102 102 102
0.315315 -0.429429 0.283833 102 102 102
-0.519520 0.233233 0.324298 102 102 102
0.035035 0.747748 0.560354 102 102 102
0.059059 0.425425 0.184475 102 102 102
-0.515516 0.565566 0.585621 102 102 102
-0.503504 0.645646 0.670374 102 102 102
0.021021 0.685686 0.470607 102 102 102
-0.051051 0.207207 0.045541 102 102 102
0.869870 -0.791792 1.383608 102 102 102
-0.061061 0.733734 0.542094 102 102 102
0.741742 -0.409409 0.717797 102 102 102
0.503504 -0.893894 1.052562 102 102 102
-0.325325 -0.609610 0.477460 102 102 102
-0.291291 0.223223 0.134679 102 102 102
-0.395395 -0.757758 0.730534 102 102 102
-0.905906 0.389389 0.972290 102 102 102
-0.335335 0.571572 0.439144 102 102 102
-0.041041 -0.061061 0.005413 102 102 102
0.395395 -0.597598 0.513460 102 102 102
0.439439 0.683684 0.660530 102 102 102
-0.379379 -0.359359 0.273068 102 102 102
0.987988 -0.205205 1.018229 102 102 102
0.421421 -0.965966 1.110686 102 102 102
0.443443 0.709710 0.700330 102 102 102
0.403403 -0.581582 0.500971 102 102 102
0.641642 0.185185 0.445998 102 102 102
-0.483483 -0.005005 0.233781 102 102 102
-0.407407 0.395395 0.322318 102 102 102
0.875876 0.541542 1.060426 102 102 102
-0.177177 -0.241241 0.089589 102 102 102
0.591592 0.017017 0.350270 102 102 102
0.461461 0.539540 0.504050 102 102 102
0.931932 -0.137137 0.887304 102 102 102
0.255255 -0.439439 0.258262 102 102 102
0.681682 0.115115 0.477941 102 102 102
0.267267 0.285285 0.152819 102 102 102
0.377377 0.123123 0.157573 102 102 102
-0.683684 -0.783784 1.081740 102 102 102
0.617618 0.763764 0.964787 102 102 102
-0.447447 -0.737738 0.744466 102 102 102
-0.575576 -0.835836 1.029909 102 102 102
0.875876 -0.359359 0.896298 102 102 102
0.251251 0.625626 0.454535 102 102 102
-0.635636 0.331331 0.513813 102 102 102
0.289289 0.689690 0.559360 102 102 102
-0.901902 -0.133133 0.831151 102 102 102
-0.269269 0.737738 0.616763 102 102 102
0.509510 0.587588 0.604859 102 102 102
-0.513514 0.981982 1.227985 102 102 102
-0.539540 0.959960 1.212626 102 102 102
-0.159159 -0.341341 0.141846 102 102 102
-0.799800 0.639640 1.048819 102 102 102
0.031031 -0.443443 0.197605 102 102 102
-0.613614 0.015015 0.376747 102 102 102
0.367367 -0.279279 0.212956 102 102 102
-0.561562 -0.073073 0.320691 102 102 102
-0.063063 -0.649650 0.426022 102 102 102
0.751752 -0.851852 1.290782 102 102 102
-0.665666 0.091091 0.451408 102 102 102
0.737738 -0.573574 0.873244 102 102 102
0.297297 -0.233233 0.142783 102 102 102
-0.359359 0.047047 0.131353 102 102 102
-0.755756 -0.309309 0.666839 102 102 102
-0.581582 -0.329329 0.446695 102 102 102
0.581582 0.927928 1.199287 102 102 102
0.389389 0.641642 0.563328 102 102 102
-0.057057 -0.833834 0.698534 102 102 102
-0.675676 -0.591592 0.806518 102 102 102
0.283283 -0.217217 0.127433 102 102 102
-0.699700 -0.839840 1.194911 102 102 102
-0.187187 -0.617618 0.416491 102 102 102
-0.061061 -0.163163 0.030351 102 102 102
0.015015 -0.833834 0.695504 102 102 102
0.929930 -0.561562 1.180121 102 102 102
-0.583584 0.917918 1.183143 102 102 102
0.477477 0.771772 0.823616 102 102 102
-0.305305 0.827828 0.778510 102 102 102
-0.121121 -0.065065 0.018904 102 102 102
-0.709710 0.193193 0.541011 102 102 102
-0.657658 -0.345345 0.551777 102 102 102
-0.995996 -0.235235 1.047344 102 102 102
-0.601602 0.905906 1.182590 102 102 102
0.519520 0.501502 0.521404 102 102 102
0.629630 0.631632 0.795392 102 102 102
-0.855856 0.203203 0.773781 102 102 102
-0.679680 0.975976 1.414494 102 102 102
0.627628 0.765766 0.980314 102 102 102
-0.567568 -0.061061 0.325861 102 102 102
-0.397397 -0.243243 0.217092 102 102 102
0.743744 -0.939940 1.436642 102 102 102
-0.143143 -0.629630 0.416923 102 102 102
-0.155155 0.571572 0.350767 102 102 102
-0.695696 -0.787788 1.104602 102 102 102
0.325325 -0.941942 0.993091 102 102 102
-0.145145 -0.783784 0.635384 102 102 102
0.613614 0.393393 0.531280 102 102 102
0.019019 -0.641642 0.412066 102 102 102
0.127127 -0.637638 0.422743 102 102 102
0.935936 0.533534 1.160634 102 102 102
-0.199199 -0.087087 0.047264 102 102 102
0.151151 0.899900 0.832667 102 102 102
0.423423 0.661662 0.617084 102 102 102
-0.409409 0.375375 0.308523 102 102 102
0.853854 -0.315315 0.828490 102 102 102
0.313313 0.729730 0.630671 102 102 102
0.213213 0.993994 1.033484 102 102 102
-0.033033 -0.225225 0.051818 102 102 102
-0.771772 0.361361 0.726214 102 102 102
-0.471471 -0.321321 0.325533 102 102 102
-0.111111 -0.023023 0.012876 102 102 102
-0.929930 0.441441 1.059640 102 102 102
0.403403 -0.893894 0.961781 102 102 102
-0.435435 0.675676 0.646142 102 102 102
0.129129 0.247247 0.077806 102 102 102
0.585586 -0.167167 0.370855 102 102 102
0.489489 0.395395 0.395937 102 102 102
0.511512 -0.911912 1.093227 102 102 102
-0.623624 -0.593594 0.741260 102 102 102
0.569570 0.857858 1.060330 102 102 102
-0.261261 -0.461461 0.281204 102 102 102
0.597598 -0.983984 1.325347 102 102 102
-0.619620 0.619620 0.767857 102 102 102
-0.579580 -0.219219 0.383970 102 102 102
0.883884 -0.487487 1.018895 102 102 102
-0.851852 -0.013013 0.725821 102 102 102
-0.937938 -0.833834 1.575006 102 102 102
0.401401 -0.037037 0.162495 102 102 102
0.645646 -0.763764 1.000193 102 102 102
1.000000 0.233233 1.054398 102 102 102
0.083083 0.405405 0.171256 102 102 102
0.531532 -0.193193 0.319849 102 102 102
-0.233233 -0.609610 0.426022 102 102 102
-0.421421 0.849850 0.899841 102 102 102
-0.013013 -0.733734 0.538535 102 102 102
0.199199 -0.995996 1.031688 102 102 102
-0.773774 -0.771772 1.194358 102 102 102
0.517518 0.141141 0.287745 102 102 102
0.507508 0.555556 0.566206 102 102 102
0.145145 -0.651652 0.445717 102 102 102
0.267267 -0.551552 0.375641 102 102 102
0.241241 -0.511512 0.319841 102 102 102
-0.761762 0.097097 0.589709 102 102 102
-0.299299 0.205205 0.131689 102 102 102
0.391391 0.669670 0.601645 102 102 102
-0.927928 -0.411411 1.030310 102 102 102
0.099099 0.313313 0.107986 102 102 102
-0.567568 0.269269 0.394639 102 102 102
-0.739740 -0.921922 1.397155 102 102 102
-0.673674 -0.691692 0.932274 102 102 102
-0.227227 0.247247 0.112763 102 102 102
-0.037037 0.807808 0.653925 102 102 102
-0.875876 -0.461461 0.980105 102 102 102
0.111111 -0.401401 0.173469 102 102 102
0.463463 -0.785786 0.832258 102 102 102
0.009009 -0.377377 0.142495 102 102 102
-0.211211 -0.581582 0.382847 102 102 102
0.745746 0.379379 0.700065 102 102 102
0.783784 -0.757758 1.188514 102 102 102
0.111111 -0.843844 0.724418 102 102 102
0.107107 -0.255255 0.076627 102 102 102
0.333333 0.809810 0.766903 102 102 102
0.285285 -0.763764 0.664723 102 102 102
-0.261261 -0.695696 0.552250 102 102 102
0.953954 0.945946 1.804842 102 102 102
-0.039039 -0.687688 0.474438 102 102 102
0.829830 0.139139 0.707977 102 102 102
0.309309 0.965966 1.028762 102 102 102
-0.881882 0.703704 1.272915 102 102 102
0.283283 -0.467467 0.298775 102 102 102
-0.057057 0.001001 0.003257 102 102 102
0.431431 -0.365365 0.319625 102 102 102
0.197197 0.147147 0.060539 102 102 102
0.697698 0.575576 0.818069 102 102 102
-0.957958 0.607608 1.286870 102 102 102
-0.499499 -0.371371 0.387416 102 102 102
-0.389389 0.291291 0.236475 102 102 102
-0.355355 -0.955956 1.040129 102 102 102
-0.459459 0.005005 0.211128 102 102 102
0.459459 0.373373 0.350511 102 102 102
-0.641642 -0.283283 0.491953 102 102 102
0.335335 0.677678 0.571697 102 102 102
-0.651652 0.415415 0.597220 102 102 102
-0.659660 -0.587588 0.780410 102 102 102
-0.989990 -0.609610 1.351704 102 102 102
-0.571572 0.485485 0.562390 102 102 102
0.713714 0.671672 0.960530 102 102 102
-0.233233 0.869870 0.811071 102 102 102
-0.879880 -0.501502 1.025692 102 102 102
-0.395395 0.077077 0.162278 102 102 102
-0.309309 0.915916 0.934574 102 102 102
0.209209 0.051051 0.046375 102 102 102
0.189189 0.845846 0.751248 102 102 102
0.163163 -0.963964 0.955849 102 102 102
0.461461 -0.237237 0.269228 102 102 102
0.691692 -0.985986 1.450606 102 102 102
-0.693694 -0.349349 0.603256 102 102 102
-0.519520 -0.581582 0.608138 102 102 102
-0.403403 0.557558 0.473605 102 102 102
0.231231 -0.341341 0.169982 102 102 102
0.317317 -0.573574 0.429677 102 102 102
0.271271 -0.609610 0.445212 102 102 102
-0.553554 0.081081 0.312996 102 102 102
0.101101 0.729730 0.542727 102 102 102
0.431431 -0.477477 0.414118 102 102 102
-0.965966 -0.011011 0.933212 102 102 102
0.665666 -0.131131 0.460306 102 102 102
-0.585586 -0.277277 0.419793 102 102 102
-0.073073 -0.117117 0.019056 102 102 102
-0.341341 -0.415415 0.289084 102 102 102
0.817818 -0.423423 0.848113 102 102 102
-0.523524 0.959960 1.195600 102 102 102
-0.559560 -0.187187 0.348146 102 102 102
0.513514 -0.199199 0.303376 102 102 102
0.207207 -0.325325 0.148771 102 102 102
-0.181181 0.813814 0.695120 102 102 102
-0.937938 -0.401401 1.040851 102 102 102
0.859860 0.063063 0.743336 102 102 102
0.463463 0.691692 0.693236 102 102 102
-0.171171 -0.359359 0.158439 102 102 102
0.537538 0.773774 0.887672 102 102 102
-0.169169 0.523524 0.302695 102 102 102
0.911912 0.293293 0.917604 102 102 102
-0.589590 0.631632 0.746574 102 102 102
0.761762 -0.635636 0.984314 102 102 102
0.043043 0.989990 0.981933 102 102 102
-0.403403 -0.693694 0.643945 102 102 102
-0.465465 0.931932 1.085155 102 102 102
-0.721722 -0.777778 1.125821 102 102 102
0.003003 0.327327 0.107152 102 102 102
0.667668 0.709710 0.949468 102 102 102
0.621622 0.425425 0.567400 102 102 102
0.339339 -0.111111 0.127497 102 102 102
-0.033033 -0.173173 0.031080 102 102 102
-0.409409 0.579580 0.503529 102 102 102
-0.377377 -0.465465 0.359072 102 102 102
-0.327327 -0.619620 0.491072 102 102 102
0.127127 0.927928 0.877212 102 102 102
-0.913914 -0.951952 1.741451 102 102 102
0.901902 -0.401401 0.974550 102 102 102
0.803804 0.127127 0.662262 102 102 102
-0.775776 0.319319 0.703793 102 102 102
0.435435 -0.725726 0.716282 102 102 102
1.000000 0.313313 1.098165 102 102 102
0.387387 -0.499499 0.399569 102 102 102
-0.009009 0.279279 0.078078 102 102 102
0.045045 -0.093093 0.010695 102 102 102
0.349349 -0.009009 0.122126 102 102 102
-0.417417 -0.691692 0.652675 102 102 102
-0.547548 0.065065 0.304042 102 102 102
0.287287 0.505506 0.338070 102 102 102
0.411411 -0.489489 0.408859 102 102 102
-0.183183 -0.349349 0.155601 102 102 102
0.057057 0.295295 0.090455 102 102 102
0.623624 -0.019019 0.389268 102 102 102
0.805806 -0.345345 0.768586 102 102 102
0.779780 0.219219 0.656114 102 102 102
0.549550 -0.817818 0.970831 102 102 102
0.795796 -0.441441 0.828161 102 102 102
-0.991992 0.019019 0.984410 102 102 102
0.005005 -0.115115 0.013277 102 102 102
0.075075 -0.829830 0.694254 102 102 102
-0.097097 -0.343343 0.127312 102 102 102
0.687688 -0.235235 0.528250 102 102 102
0.173173 0.717718 0.545108 102 102 102
0.685686 0.997998 1.466165 102 102 102
-0.891892 -0.037037 0.796843 102 102 102
-0.853854 0.413413 0.899977 102 102 102
-0.153153 0.991992 1.007504 102 102 102
-0.221221 0.865866 0.798663 102 102 102
0.703704 -0.349349 0.617244 102 102 102
0.175175 0.307307 0.125124 102 102 102
-0.005005 -0.345345 0.119288 102 102 102
0.083083 -1.000000 1.006903 102 102 102
-0.149149 -0.077077 0.028186 102 102 102
0.001001 -0.589590 0.347617 102 102 102
-0.577578 -0.655656 0.763480 102 102 102
0.275275 0.551552 0.379986 102 102 102
0.251251 0.839840 0.768458 102 102 102
0.753754 -0.991992 1.552193 102 102 102
0.265265 -0.087087 0.077950 102 102 102
-0.619620 0.267267 0.455360 102 102 102
-0.007007 0.839840 0.705380 102 102 102
0.293293 -0.819820 0.758125 102 102 102
-0.377377 -0.897898 0.948634 102 102 102
0.099099 1.000000 1.009821 102 102 102
-0.643644 0.481481 0.646102 102 102 102
0.089089 -0.539540 0.299040 102 102 102
0.067067 0.229229 0.057044 102 102 102
0.885886 0.991992 1.768842 102 102 102
0.423423 -0.299299 0.268867 102 102 102
-0.583584 -0.623624 0.729476 102 102 102
0.513514 -0.239239 0.320932 102 102 102
-0.451451 -0.723724 0.727584 102 102 102
-0.689690 -0.437437 0.667023 102 102 102
0.083083 -0.723724 0.530679 102 102 102
0.989990 0.259259 1.047296 102 102 102
-0.655656 0.503504 0.683400 102 102 102
0.625626 -0.407407 0.557388 102 102 102
-0.843844 -0.329329 0.820530 102 102 102
-0.111111 0.847848 0.731192 102 102 102
-0.555556 -0.229229 0.361188 102 102 102
-0.851852 -0.027027 0.726382 102 102 102
-0.397397 0.829830 0.846542 102 102 102
-0.373373 -0.465465 0.356066 102 102 102
-0.891892 -0.697698 1.282253 102 102 102
-0.579580 -0.803804 0.982013 102 102 102
-0.453453 -0.505506 0.461156 102 102 102
0.467467 0.775776 0.820354 102 102 102
-0.939940 -0.537538 1.172434 102 102 102
-0.569570 0.035035 0.325637 102 102 102
-0.533534 -0.687688 0.757572 102 102 102
-0.117117 -0.143143 0.034206 102 102 102
0.329329 0.179179 0.140563 102 102 102
-0.767768 0.121121 0.604138 102 102 102
-0.507508 -0.031031 0.258527 102 102 102
-0.677678 -0.631632 0.858206 102 102 102
0.653654 0.871872 1.187424 102 102 102
0.893894 -0.337337 0.912843 102 102 102
0.437437 0.867868 0.944546 102 102 102
0.475475 0.277277 0.302960 102 102 102
0.705706 -0.231231 0.551488 102 102 102
-0.019019 -0.955956 0.914214 102 102 102
0.049049 -0.077077 0.008347 102 102 102
0.967968 0.743744 1.490117 102 102 102
-0.017017 -0.101101 0.010511 102 102 102
-0.739740 -0.481481 0.779039 102 102 102
-0.301301 0.809810 0.746574 102 102 102
-0.953954 -0.549550 1.212033 102 102 102
-0.991992 0.013013 0.984217 102 102 102
-0.055055 -0.745746 0.559168 102 102 102
-0.025025 0.759760 0.577861 102 102 102
0.005005 -0.541542 0.293292 102 102 102
-0.713714 -0.751752 1.074518 102 102 102
0.659660 -0.181181 0.467977 102 102 102
-0.353353 -0.053053 0.127673 102 102 102
0.057057 -0.415415 0.175825 102 102 102
-0.779780 0.935936 1.484033 102 102 102
0.387387 -0.903904 0.967111 102 102 102
0.989990 -0.907908 1.804377 102 102 102
-0.943944 0.481481 1.122855 102 102 102
-0.469469 -0.571572 0.547096 102 102 102
0.919920 -0.123123 0.861412 102 102 102
0.789790 -0.861862 1.366574 102 102 102
-0.073073 0.715716 0.517589 102 102 102
-0.233233 0.475475 0.280475 102 102 102
-0.075075 0.909910 0.833572 102 102 102
0.295295 -0.321321 0.190447 102 102 102
0.879880 -0.517518 1.042013 102 102 102
0.963964 0.825826 1.611215 102 102 102
-0.581582 -0.413413 0.509148 102 102 102
-0.309309 -0.055055 0.098703 102 102 102
0.671672 -0.387387 0.601212 102 102 102
-0.831832 -0.919920 1.538197 102 102 102
-0.509510 0.163163 0.286222 102 102 102
0.549550 -0.443443 0.498647 102 102 102
0.133133 -0.827828 0.703023 102 102 102
-0.431431 0.719720 0.704130 102 102 102
0.827828 0.669670 1.133756 102 102 102
-0.061061 0.971972 0.948458 102 102 102
0.031031 0.439439 0.194070 102 102 102
-0.365365 0.701702 0.625877 102 102 102
-0.925926 -0.429429 1.041748 102 102 102
-0.911912 0.017017 0.831873 102 102 102
-0.535536 -0.731732 0.822230 102 102 102
-0.551552 -0.465465 0.520867 102 102 102
-0.207207 -0.661662 0.480731 102 102 102
0.755756 -0.391391 0.724354 102 102 102
0.299299 0.297297 0.177966 102 102 102
0.545546 -0.251251 0.360747 102 102 102
0.179179 -0.519520 0.302006 102 102 102
0.219219 0.843844 0.760130 102 102 102
0.829830 -0.029029 0.689460 102 102 102
-0.941942 0.027027 0.887985 102 102 102
0.505506 -0.823824 0.934222 102 102 102
-0.093093 0.467467 0.227192 102 102 102
-0.039039 -0.121121 0.016194 102 102 102
0.497497 0.495495 0.493020 102 102 102
-0.617618 0.851852 1.107103 102 102 102
0.477477 -0.859860 0.967344 102 102 102
0.631632 0.235235 0.454294 102 102 102
0.531532 0.315315 0.381950 102 102 102
0.607608 0.515516 0.634943 102 102 102
0.155155 -0.323323 0.128611 102 102 102
-0.377377 0.219219 0.190471 102 102 102
0.611612 -0.449449 0.576074 102 102 102
-0.661662 -0.331331 0.547577 102 102 102
-0.099099 0.027027 0.010551 102 102 102
0.239239 0.755756 0.628402 102 102 102
-0.097097 0.123123 0.024587 102 102 102
-0.863864 -0.503504 0.999777 102 102 102
-0.111111 0.971972 0.957075 102 102 102
-0.023023 0.763764 0.583865 102 102 102
-0.167167 0.665666 0.471056 102 102 102
-0.793794 0.717718 1.145227 102 102 102
-0.797798 0.819820 1.308586 102 102 102
0.827828 -0.393393 0.840057 102 102 102
0.447447 -0.779780 0.808266 102 102 102
-0.101101 0.569570 0.334631 102 102 102
-0.959960 0.005005 0.921548 102 102 102
0.785786 -0.021021 0.617901 102 102 102
0.255255 0.059059 0.068643 102 102 102
0.249249 0.745746 0.618262 102 102 102
0.317317 0.011011 0.100812 102 102 102
0.163163 -0.453453 0.232242 102 102 102
-0.313313 -0.545546 0.395785 102 102 102
-0.595596 -0.597598 0.711857 102 102 102
0.591592 0.509510 0.609581 102 102 102
0.909910 -0.109109 0.839841 102 102 102
-0.901902 0.065065 0.817661 102 102 102
-0.075075 0.965966 0.938726 102 102 102
-0.127127 0.687688 0.489076 102 102 102
-0.275275 0.897898 0.881997 102 102 102
0.869870 0.255255 0.821829 102 102 102
0.663664 0.867868 1.193644 102 102 102
0.871872 -0.437437 0.951512 102 102 102
0.935936 -0.277277 0.952859 102 102 102
-0.271271 -0.501502 0.325092 102 102 102
-0.443443 0.249249 0.258767 102 102 102
0.273273 0.455455 0.282118 102 102 102
-0.165165 0.879880 0.801468 102 102 102
-0.253253 0.889890 0.856041 102 102 102
0.097097 -0.357357 0.137132 102 102 102
-0.221221 0.943944 0.939969 102 102 102
-0.313313 -0.173173 0.128154 102 102 102
0.345345 -0.881882 0.896979 102 102 102
-0.335335 0.427427 0.295144 102 102 102
-0.741742 -0.277277 0.627064 102 102 102
0.037037 -0.335335 0.113822 102 102 102
-0.823824 -0.567568 1.000819 102 102 102
0.789790 0.535536 0.910566 102 102 102
0.027027 -0.939940 0.884218 102 102 102
0.833834 -0.435435 0.884883 102 102 102
0.273273 -0.797798 0.711160 102 102 102
0.673674 0.163163 0.480458 102 102 102
-0.293293 -0.311311 0.182936 102 102 102
0.041041 0.737738 0.545941 102 102 102
-0.551552 -0.745746 0.860346 102 102 102
0.309309 -0.311311 0.192587 102 102 102
0.773774 -0.877878 1.369395 102 102 102
0.323323 -0.031031 0.105501 102 102 102
0.193193 -0.337337 0.151120 102 102 102
0.669670 0.081081 0.455032 102 102 102
-0.221221 -0.083083 0.055842 102 102 102
0.755756 0.251251 0.634294 102 102 102
0.471471 0.775776 0.824113 102 102 102
-0.333333 -0.993994 1.099135 102 102 102
0.615616 -0.385385 0.527505 102 102 102
0.843844 -0.113113 0.724867 102 102 102
0.217217 0.803804 0.693284 102 102 102
-0.595596 -0.029029 0.355577 102 102 102
-0.685686 0.365365 0.603657 102 102 102
-0.181181 0.443443 0.229469 102 102 102
-0.117117 0.571572 0.340410 102 102 102
-0.061061 0.967968 0.940690 102 102 102
0.023023 0.319319 0.102495 102 102 102
0.449449 0.783784 0.816322 102 102 102
-0.433433 -0.299299 0.277445 102 102 102
-0.517518 0.935936 1.143800 102 102 102
0.607608 -0.297297 0.457573 102 102 102
0.307307 0.525526 0.370615 102 102 102
-0.569570 -0.035035 0.325637 102 102 102
0.861862 0.645646 1.159664 102 102 102
0.313313 -0.563564 0.415769 102 102 102
0.351351 0.893894 0.922494 102 102 102
0.333333 -0.157157 0.135809 102 102 102
0.197197 0.607608 0.408074 102 102 102
0.393393 0.215215 0.201076 102 102 102
-0.883884 0.039039 0.782775 102 102 102
-0.923924 0.015015 0.853861 102 102 102
-0.127127 0.977978 0.972602 102 102 102
0.509510 0.613614 0.636122 102 102 102
-0.235235 -0.727728 0.584923 102 102 102
0.075075 -0.015015 0.005862 102 102 102
0.407407 -0.855856 0.898470 102 102 102
0.093093 -0.597598 0.365789 102 102 102
0.535536 0.893894 1.085845 102 102 102
-0.069069 0.143143 0.025260 102 102 102
-0.029029 0.601602 0.362767 102 102 102
0.049049 -0.959960 0.923929 102 102 102
-0.379379 -0.937938 1.023656 102 102 102
0.235235 -0.717718 0.570454 102 102 102
-0.875876 -0.515516 1.032915 102 102 102
-1.000000 0.111111 1.012346 102 102 102
0.653654 -0.195195 0.465364 102 102 102
-0.279279 -0.029029 0.078840 102 102 102
-0.519520 0.099099 0.279721 102 102 102
0.201201 0.501502 0.291986 102 102 102
-0.259259 -0.617618 0.448667 102 102 102
0.933934 0.405405 1.036586 102 102 102
0.945946 -0.933934 1.767046 102 102 102
-0.873874 -0.483483 0.997412 102 102 102
0.669670 -0.781782 1.059640 102 102 102
-0.001001 0.449449 0.202006 102 102 102
0.191191 0.293293 0.122575 102 102 102
-0.001001 -0.153153 0.023457 102 102 102
-0.321321 0.405405 0.267601 102 102 102
-0.563564 0.967968 1.254566 102 102 102
0.653654 -0.445445 0.625685 102 102 102
-0.627628 0.113113 0.406711 102 102 102
-0.271271 -0.699700 0.563168 102 102 102
-0.847848 -0.973974 1.667471 102 102 102
0.403403 -0.039039 0.164258 102 102 102
0.109109 -0.447447 0.212114 102 102 102
0.039039 -0.987988 0.977644 102 102 102
-0.965966 0.393393 1.087849 102 102 102
0.743744 0.263263 0.622462 102 102 102
-0.405405 0.813814 0.826646 102 102 102
-0.021021 0.147147 0.022094 102 102 102
0.531532 -0.023023 0.283056 102 102 102
-0.043043 -0.181181 0.034679 102 102 102
0.051051 -0.735736 0.543913 102 102 102
0.805806 -0.549550 0.951328 102 102 102
-0.705706 -0.017017 0.498310 102 102 102
0.025025 0.397397 0.158551 102 102 102
-0.697698 -0.787788 1.107392 102 102 102
-0.891892 0.893894 1.594517 102 102 102
-0.499499 -0.629630 0.645933 102 102 102
-0.919920 -0.859860 1.585612 102 102 102
-0.173173 0.653654 0.457252 102 102 102
0.777778 0.107107 0.616410 102 102 102
-0.473473 0.309309 0.319849 102 102 102
-0.239239 -0.047047 0.059449 102 102 102
0.043043 -0.037037 0.003224 102 102 102
-0.493493 0.145145 0.264603 102 102 102
0.437437 0.195195 0.229453 102 102 102
-0.599600 -0.079079 0.365773 102 102 102
0.275275 0.421421 0.253372 102 102 102
-0.577578 -0.483483 0.567352 102 102 102
0.929930 0.227227 0.916402 102 102 102
0.959960 -0.455455 1.128963 102 102 102
-0.969970 -0.799800 1.580521 102 102 102
0.787788 0.083083 0.627512 102 102 102
-0.305305 -0.225225 0.143938 102 102 102
-0.143143 0.071071 0.025541 102 102 102
0.783784 0.991992 1.598365 102 102 102
0.269269 -0.819820 0.744610 102 102 102
-0.829830 -0.417417 0.862855 102 102 102
0.719720 -0.147147 0.539649 102 102 102
-0.331331 -0.273273 0.184459 102 102 102
-0.579580 1.000000 1.335912 102 102 102
-0.361361 0.135135 0.148844 102 102 102
0.771772 -0.107107 0.607104 102 102 102
-0.177177 -0.023023 0.031922 102 102 102
0.585586 -0.463463 0.557709 102 102 102
0.147147 0.453453 0.227272 102 102 102
-0.551552 -0.645646 0.721067 102 102 102
-0.209209 0.309309 0.139441 102 102 102
0.953954 0.063063 0.914005 102 102 102
-0.505506 0.665666 0.698647 102 102 102
0.373373 -0.833834 0.834687 102 102 102
-0.747748 -0.863864 1.305387 102 102 102
0.421421 0.813814 0.839889 102 102 102
0.267267 0.345345 0.190695 102 102 102
-0.121121 -0.067067 0.019168 102 102 102
-0.193193 0.701702 0.529709 102 102 102
0.649650 -0.023023 0.422575 102 102 102
-0.553554 0.659660 0.741572 102 102 102
-0.731732 -0.733734 1.073797 102 102 102
-0.143143 0.429429 0.204900 102 102 102
-0.699700 -0.733734 1.027945 102 102 102
0.729730 0.317317 0.633196 102 102 102
-0.607608 0.687688 0.842101 102 102 102
0.655656 -0.565566 0.749749 102 102 102
0.745746 -0.501502 0.807640 102 102 102
0.863864 0.117117 0.759977 102 102 102
0.977978 0.067067 0.960939 102 102 102
0.333333 0.363363 0.243144 102 102 102
0.807808 -0.321321 0.755801 102 102 102
-0.077077 0.461461 0.218888 102 102 102
0.403403 -0.959960 1.084257 102 102 102
-0.987988 0.839840 1.681451 102 102 102
0.925926 0.217217 0.904522 102 102 102
-0.991992 -0.297297 1.072434 102 102 102
0.773774 0.209209 0.642494 102 102 102
0.465465 0.345345 0.335921 102 102 102
0.719720 0.387387 0.668065 102 102 102
-0.029029 -0.355355 0.127120 102 102 102
0.291291 0.357357 0.212555 102 102 102
0.545546 0.065065 0.301853 102 102 102
0.897898 0.643644 1.220498 102 102 102
0.289289 0.345345 0.202952 102 102 102
0.093093 -0.949950 0.911071 102 102 102
-0.779780 -0.747748 1.167183 102 102 102
-0.805806 -0.697698 1.136105 102 102 102
-0.557558 0.797798 0.947352 102 102 102
0.537538 0.273273 0.363625 102 102 102
0.749750 -0.911912 1.393708 102 102 102
0.467467 -0.413413 0.389436 102 102 102
-0.663664 0.453453 0.646069 102 102 102
-0.743744 0.665666 0.996266 102 102 102
-0.847848 -0.335335 0.831296 102 102 102
0.837838 -0.957958 1.619656 102 102 102
0.905906 0.195195 0.858767 102 102 102
-0.847848 0.443443 0.915488 102 102 102
-0.733734 0.573574 0.867352 102 102 102
-0.787788 -0.987988 1.596730 102 102 102
0.367367 -0.095095 0.144002 102 102 102
0.207207 -0.061061 0.046663 102 102 102
-0.445445 0.391391 0.351609 102 102 102
-0.721722 -0.279279 0.598879 102 102 102
-0.139139 0.475475 0.245437 102 102 102
0.963964 0.357357 1.056931 102 102 102
0.631632 -0.639640 0.808097 102 102 102
-0.353353 -0.727728 0.654446 102 102 102
0.213213 -0.165165 0.072739 102 102 102
-0.151151 0.909910 0.850783 102 102 102
-0.097097 0.545546 0.307048 102 102 102
-0.277277 -0.259259 0.144098 102 102 102
-0.425425 -0.821822 0.856378 102 102 102
-0.033033 -0.941942 0.888346 102 102 102
0.881882 -0.555556 1.086358 102 102 102
-0.233233 0.137137 0.073204 102 102 102
-0.211211 -0.735736 0.585917 102 102 102
0.787788 -0.879880 1.394798 102 102 102
0.483483 0.113113 0.246551 102 102 102
0.369369 -0.771772 0.732065 102 102 102
-0.497497 0.785786 0.864963 102 102 102
-0.887888 0.365365 0.921837 102 102 102
0.709710 0.459459 0.714791 102 102 102
0.479479 0.047047 0.232114 102 102 102
0.087087 0.209209 0.051353 102 102 102
-0.985986 -0.673674 1.426005 102 102 102
-0.069069 0.373373 0.144178 102 102 102
0.739740 -0.243243 0.606382 102 102 102
-0.921922 0.249249 0.912065 102 102 102
-0.237237 0.335335 0.168731 102 102 102
-0.685686 -0.133133 0.487889 102 102 102
-0.665666 0.353353 0.567969 102 102 102
0.031031 -0.119119 0.015152 102 102 102
-0.831832 -0.639640 1.101083 102 102 102
-0.811812 -0.095095 0.668082 102 102 102
0.737738 -0.303303 0.636250 102 102 102
-0.477477 0.247247 0.289116 102 102 102
0.183183 0.141141 0.053477 102 102 102
0.839840 -0.597598 1.062454 102 102 102
0.997998 0.743744 1.549155 102 102 102
0.035035 0.491491 0.242791 102 102 102
0.075075 -0.463463 0.220435 102 102 102
0.581582 -0.545546 0.635857 102 102 102
-0.711712 -0.583584 0.847103 102 102 102
-0.725726 0.027027 0.527408 102 102 102
-0.991992 -0.843844 1.696121 102 102 102
0.105105 -0.425425 0.192034 102 102 102
0.895896 0.235235 0.857965 102 102 102
-0.445445 -0.851852 0.924073 102 102 102
-0.049049 0.099099 0.012226 102 102 102
-1.000000 -0.997998 1.996000 102 102 102
0.541542 -0.699700 0.782847 102 102 102
-0.857858 -0.939940 1.619407 102 102 102
0.357357 0.019019 0.128066 102 102 102
-0.107107 0.967968 0.948434 102 102 102
0.293293 -0.355355 0.212298 102 102 102
0.243243 0.981982 1.023456 102 102 102
-0.613614 0.495495 0.622037 102 102 102
-0.995996 0.481481 1.223832 102 102 102
-0.829830 -0.989990 1.668698 102 102 102
0.787788 0.939940 1.504097 102 102 102
0.737738 -0.407407 0.710238 102 102 102
-0.019019 0.235235 0.055697 102 102 102
-0.173173 -0.959960 0.951512 102 102 102
-0.485485 0.015015 0.235922 102 102 102
0.429429 -0.091091 0.192707 102 102 102
1.000000 -0.759760 1.577235 102 102 102
0.853854 0.595596 1.083801 102 102 102
0.933934 -0.129129 0.888907 102 102 102
-0.453453 -0.183183 0.239176 102 102 102
0.115115 -0.779780 0.621308 102 102 102
-0.653654 -0.385385 0.575785 102 102 102
0.311311 0.779780 0.704971 102 102 102
-0.649650 -0.075075 0.427681 102 102 102
-0.901902 -0.515516 1.079183 102 102 102
-0.561562 0.381381 0.460803 102 102 102
-0.867868 0.895896 1.555824 102 102 102
0.369369 0.645646 0.553292 102 102 102
0.329329 -0.325325 0.214294 102 102 102
0.743744 0.863864 1.299416 102 102 102
-0.341341 -0.221221 0.165453 102 102 102
0.695696 -0.565566 0.803857 102 102 102
0.013013 -0.463463 0.214968 102 102 102
-0.405405 -0.697698 0.651136 102 102 102
0.533534 0.219219 0.332715 102 102 102
0.033033 -0.523524 0.275168 102 102 102
-0.017017 0.477477 0.228274 102 102 102
0.475475 -0.291291 0.310928 102 102 102
-0.481481 -0.857858 0.967745 102 102 102
0.941942 -0.391391 1.040442 102 102 102
-0.309309 0.111111 0.108018 102 102 102
-0.369369 -0.671672 0.587577 102 102 102
-0.773774 0.575576 0.930013 102 102 102
0.323323 0.049049 0.106944 102 102 102
0.073073 0.147147 0.026992 102 102 102
0.319319 0.509510 0.361565 102 102 102
-0.407407 0.851852 0.891632 102 102 102
-0.463463 -0.093093 0.223465 102 102 102
0.007007 0.697698 0.486831 102 102 102
0.191191 -0.209209 0.080323 102 102 102
-0.285285 0.845846 0.796843 102 102 102
0.205205 0.267267 0.113541 102 102 102
0.339339 -0.987988 1.091271 102 102 102
0.825826 0.321321 0.785236 102 102 102
0.913914 -0.315315 0.934662 102 102 102
0.611612 0.289289 0.457757 102 102 102
0.083083 0.737738 0.551160 102 102 102
0.337337 -0.749750 0.675921 102 102 102
0.151151 0.581582 0.361084 102 102 102
0.717718 0.433433 0.702983 102 102 102
-0.589590 0.433433 0.535480 102 102 102
-0.905906 -0.635636 1.224698 102 102 102
0.581582 0.311311 0.435152 102 102 102
0.535536 0.575576 0.618086 102 102 102
-0.287287 -0.857858 0.818454 102 102 102
0.127127 0.377377 0.158575 102 102 102
0.133133 0.437437 0.209076 102 102 102
0.895896 -0.685686 1.272794 102 102 102
-0.873874 0.721722 1.284538 102 102 102
-0.011011 -0.247247 0.061252 102 102 102
-0.563564 -0.139139 0.336964 102 102 102
-0.799800 0.865866 1.389403 102 102 102
0.905906 -0.171171 0.849965 102 102 102
-0.475475 -0.967968 1.163039 102 102 102
-0.491491 0.823824 0.920250 102 102 102
0.937938 0.493493 1.123263 102 102 102
0.867868 0.563564 1.070799 102 102 102
0.709710 0.165165 0.530967 102 102 102
0.359359 0.811812 0.788178 102 102 102
0.011011 -0.275275 0.075898 102 102 102
-0.127127 -0.371371 0.154078 102 102 102
-0.097097 0.285285 0.090816 102 102 102
0.981982 0.279279 1.042286 102 102 102
-0.359359 -0.493493 0.372675 102 102 102
-0.361361 0.445445 0.329004 102 102 102
0.139139 -0.913914 0.854598 102 102 102
-0.093093 -0.547548 0.308475 102 102 102
-0.475475 0.127127 0.242238 102 102 102
-0.911912 0.583584 1.172153 102 102 102
0.649650 0.023023 0.422575 102 102 102
0.833834 -0.355355 0.821556 102 102 102
0.309309 -0.149149 0.117918 102 102 102
-0.059059 -0.107107 0.014960 102 102 102
-0.773774 -0.733734 1.137091 102 102 102
0.481481 -0.447447 0.432034 102 102 102
-0.721722 -0.577578 0.854478 102 102 102
0.257257 0.917918 0.908755 102 102 102
-0.285285 -0.193193 0.118711 102 102 102
-0.917918 -0.991992 1.826621 102 102 102
0.751752 0.449449 0.767136 102 102 102
-0.997998 -0.173173 1.025989 102 102 102
0.595596 -0.445445 0.553156 102 102 102
0.417417 0.351351 0.297685 102 102 102
0.021021 0.619620 0.384370 102 102 102
0.479479 -0.369369 0.366334 102 102 102
-0.719720 0.005005 0.518022 102 102 102
0.297297 0.733734 0.626751 102 102 102
-0.519520 0.469469 0.490302 102 102 102
0.737738 -0.079079 0.550510 102 102 102
0.039039 -0.349349 0.123569 102 102 102
-0.327327 0.801802 0.750029 102 102 102
-0.547548 -0.441441 0.494679 102 102 102
0.837838 0.753754 1.270117 102 102 102
0.225225 -0.245245 0.110872 102 102 102
-0.857858 0.047047 0.738134 102 102 102
-0.423423 -0.967968 1.116249 102 102 102
0.211211 -0.151151 0.067457 102 102 102
0.427427 -0.985986 1.154863 102 102 102
0.435435 0.047047 0.191817 102 102 102
0.837838 0.995996 1.693980 102 102 102
0.143143 0.877878 0.791160 102 102 102
0.875876 0.185185 0.801452 102 102 102
-0.077077 -0.935936 0.881917 102 102 102
0.371371 0.199199 0.177597 102 102 102
0.147147 -0.923924 0.875288 102 102 102
-0.945946 0.965966 1.827904 102 102 102
0.575576 0.295295 0.418487 102 102 102
0.095095 -0.311311 0.105958 102 102 102
-0.725726 0.899900 1.336498 102 102 102
-0.791792 -0.333333 0.738045 102 102 102
0.219219 -0.927928 0.909107 102 102 102
0.123123 0.091091 0.023457 102 102 102
0.711712 0.623624 0.895440 102 102 102
0.253253 0.093093 0.072804 102 102 102
0.805806 -0.275275 0.725099 102 102 102
-0.117117 0.077077 0.019657 102 102 102
-0.281281 0.273273 0.153797 102 102 102
-0.719720 -0.791792 1.144931 102 102 102
-0.167167 0.997998 1.023945 102 102 102
0.379379 0.359359 0.273068 102 102 102
