# 3D point list with one line of data per point:
#   POINT3D_ID, X, Y, Z, R, G, B, ERROR
15292 0.599600 -0.567568 0.681653 102 102 102 1.0
15293 0.601602 -0.483483 0.595681 102 102 102 1.0
15294 -0.377377 -0.763764 0.725749 102 102 102 1.0
15295 0.549550 -0.291291 0.386855 102 102 102 1.0
15296 -0.681682 -0.387387 0.614759 102 102 102 1.0
15297 -0.935936 0.373373 1.015384 102 102 102 1.0
15298 0.735736 0.647648 0.960755 102 102 102 1.0
15299 -0.453453 -0.493493 0.449156 102 102 102 1.0
15300 0.279279 0.645646 0.494855 102 102 102 1.0
15301 0.529530 -0.843844 0.992474 102 102 102 1.0
15302 -0.009009 -0.503504 0.253597 102 102 102 1.0
15303 -0.987988 0.717718 1.491239 102 102 102 1.0
15304 -0.409409 0.927928 1.028666 102 102 102 1.0
15305 0.071071 0.549550 0.307056 102 102 102 1.0
15306 -0.761762 -0.549550 0.882286 102 102 102 1.0
15307 0.713714 0.787788 1.129997 102 102 102 1.0
15308 -0.783784 0.555556 0.922959 102 102 102 1.0
15309 0.861862 0.965966 1.675896 102 102 102 1.0
15310 -0.641642 -0.587588 0.756963 102 102 102 1.0
15311 -0.925926 0.219219 0.905396 102 102 102 1.0
15312 -0.349349 -0.165165 0.149325 102 102 102 1.0
15313 -0.751752 0.953954 1.475159 102 102 102 1.0
15314 0.437437 -0.361361 0.321934 102 102 102 1.0
15315 0.197197 0.771772 0.634518 102 102 102 1.0
15316 -0.105105 0.889890 0.802951 102 102 102 1.0
15317 -0.935936 -0.877878 1.646646 102 102 102 1.0
15318 0.125125 -0.129129 0.032331 102 102 102 1.0
15319 0.869870 0.229229 0.809220 102 102 102 1.0
15320 0.881882 0.883884 1.558966 102 102 102 1.0
15321 -0.749750 -0.295295 0.649324 102 102 102 1.0
15322 0.215215 -0.819820 0.718422 102 102 102 1.0
15323 -0.013013 0.461461 0.213116 102 102 102 1.0
15324 0.525526 0.817818 0.945003 102 102 102 1.0
15325 -0.031031 0.993994 0.988987 102 102 102 1.0
15326 -0.691692 0.735736 1.019745 102 102 102 1.0
15327 -0.949950 0.843844 1.614477 102 102 102 1.0
15328 0.583584 0.973974 1.289195 102 102 102 1.0
15329 0.401401 -0.939940 1.044610 102 102 102 1.0
15330 0.407407 -0.655656 0.595865 102 102 102 1.0
15331 0.241241 -0.903904 0.875240 102 102 102 1.0
15332 0.355355 0.393393 0.281036 102 102 102 1.0
15333 0.743744 0.713714 1.062542 102 102 102 1.0
15334 -0.825826 0.743744 1.235143 102 102 102 1.0
15335 -0.197197 -0.051051 0.041493 102 102 102 1.0
15336 0.291291 0.949950 0.987256 102 102 102 1.0
15337 -0.573574 -0.881882 1.106702 102 102 102 1.0
15338 -0.645646 0.363363 0.548891 102 102 102 1.0
15339 0.903904 -0.289289 0.900731 102 102 102 1.0
15340 -0.605606 -0.211211 0.411368 102 102 102 1.0
15341 0.969970 0.769770 1.533387 102 102 102 1.0
15342 0.931932 -0.157157 0.893196 102 102 102 1.0
15343 0.065065 0.063063 0.008210 102 102 102 1.0
15344 0.119119 0.669670 0.462647 102 102 102 1.0
15345 -0.039039 0.685686 0.471689 102 102 102 1.0
15346 -0.535536 -0.303303 0.378791 102 102 102 1.0
15347 -0.251251 -0.887888 0.851472 102 102 102 1.0
15348 0.851852 0.017017 0.725941 102 102 102 1.0
15349 0.121121 -0.257257 0.080852 102 102 102 1.0
15350 -0.177177 -0.807808 0.683945 102 102 102 1.0
15351 -0.377377 0.405405 0.306767 102 102 102 1.0
15352 -0.655656 0.343343 0.547769 102 102 102 1.0
15353 -0.255255 -0.875876 0.832314 102 102 102 1.0
15354 -0.225225 -0.835836 0.749348 102 102 102 1.0
15355 -0.653654 0.619620 0.811192 102 102 102 1.0
15356 0.033033 0.047047 0.003305 102 102 102 1.0
15357 0.025025 -0.837838 0.702599 102 102 102 1.0
15358 -0.549550 0.623624 0.690911 102 102 102 1.0
15359 -0.477477 -0.373373 0.367392 102 102 102 1.0
15360 -0.329329 0.003003 0.108467 102 102 102 1.0
15361 0.499499 0.991992 1.233548 102 102 102 1.0
15362 -0.297297 -0.203203 0.129677 102 102 102 1.0
15363 -0.673674 0.555556 0.762478 102 102 102 1.0
15364 0.955956 -0.235235 0.969187 102 102 102 1.0
15365 -0.607608 -0.909910 1.197123 102 102 102 1.0
15366 -0.109109 -0.743744 0.565060 102 102 102 1.0
15367 0.081081 0.869870 0.763248 102 102 102 1.0
15368 0.371371 -0.021021 0.138359 102 102 102 1.0
15369 0.591592 -0.333333 0.461092 102 102 102 1.0
15370 0.661662 -0.015015 0.438022 102 102 102 1.0
15371 0.601602 0.815816 1.027480 102 102 102 1.0
15372 -0.843844 0.855856 1.444562 102 102 102 1.0
15373 0.213213 -0.245245 0.105605 102 102 102 1.0
15374 0.685686 0.795796 1.103456 102 102 102 1.0
15375 -0.711712 0.781782 1.117716 102 102 102 1.0
15376 -0.391391 0.997998 1.149187 102 102 102 1.0
15377 0.389389 0.567568 0.473757 102 102 102 1.0
15378 -0.027027 0.737738 0.544987 102 102 102 1.0
15379 -0.841842 0.463463 0.923496 102 102 102 1.0
15380 0.069069 -0.543544 0.300210 102 102 102 1.0
15381 -0.331331 -0.491491 0.351344 102 102 102 1.0
15382 0.147147 0.633634 0.423144 102 102 102 1.0
15383 -0.463463 -0.587588 0.560058 102 102 102 1.0
15384 0.769770 0.175175 0.623232 102 102 102 1.0
15385 -0.235235 -0.753754 0.623480 102 102 102 1.0
15386 -0.379379 -0.821822 0.819320 102 102 102 1.0
15387 0.397397 -0.523524 0.432002 102 102 102 1.0
15388 -0.191191 -0.245245 0.096699 102 102 102 1.0
15389 0.211211 0.017017 0.044900 102 102 102 1.0
15390 0.761762 0.991992 1.564329 102 102 102 1.0
15391 0.959960 0.303303 1.013516 102 102 102 1.0
15392 0.529530 0.695696 0.764394 102 102 102 1.0
15393 0.049049 0.541542 0.295673 102 102 102 1.0
15394 0.123123 -0.499499 0.264659 102 102 102 1.0
15395 0.023023 0.051051 0.003136 102 102 102 1.0
15396 0.719720 0.979980 1.478357 102 102 102 1.0
15397 -0.547548 -0.775776 0.901636 102 102 102 1.0
15398 -0.231231 0.209209 0.097236 102 102 102 1.0
15399 -0.543544 -0.607608 0.664627 102 102 102 1.0
15400 -0.741742 -0.339339 0.665332 102 102 102 1.0
15401 0.803804 0.819820 1.318205 102 102 102 1.0
15402 -0.229229 0.753754 0.620691 102 102 102 1.0
15403 0.791792 -0.589590 0.974550 102 102 102 1.0
15404 -0.959960 -0.591592 1.271504 102 102 102 1.0
15405 -0.105105 -0.143143 0.031537 102 102 102 1.0
15406 -0.995996 0.347347 1.112658 102 102 102 1.0
15407 -0.811812 0.149149 0.681284 102 102 102 1.0
15408 -0.779780 -0.605606 0.974815 102 102 102 1.0
15409 0.755756 -0.075075 0.576803 102 102 102 1.0
15410 -0.097097 -0.717718 0.524547 102 102 102 1.0
15411 -0.739740 -0.923924 1.400850 102 102 102 1.0
15412 0.873874 -0.403403 0.926390 102 102 102 1.0
15413 0.813814 -0.833834 1.357572 102 102 102 1.0
15414 -0.289289 -0.987988 1.059809 102 102 102 1.0
15415 0.003003 -0.009009 0.000090 102 102 102 1.0
15416 -0.081081 -0.449449 0.208579 102 102 102 1.0
15417 -0.515516 0.535536 0.552555 102 102 102 1.0
15418 0.869870 -0.885886 1.541467 102 102 102 1.0
15419 0.951952 0.789790 1.529980 102 102 102 1.0
15420 -0.887888 0.305305 0.881556 102 102 102 1.0
15421 -0.605606 -0.097097 0.376186 102 102 102 1.0
15422 -0.637638 0.251251 0.469709 102 102 102 1.0
15423 -0.853854 0.663664 1.169516 102 102 102 1.0
15424 -0.913914 0.175175 0.865925 102 102 102 1.0
15425 -0.621622 0.467467 0.604939 102 102 102 1.0
15426 0.599600 -0.799800 0.999199 102 102 102 1.0
15427 -0.015015 -0.579580 0.336138 102 102 102 1.0
15428 0.963964 -0.053053 0.932041 102 102 102 1.0
15429 -0.309309 0.283283 0.175922 102 102 102 1.0
15430 0.767768 -0.535536 0.876266 102 102 102 1.0
15431 0.639640 0.005005 0.409164 102 102 102 1.0
15432 0.885886 0.669670 1.233251 102 102 102 1.0
15433 -0.109109 -0.395395 0.168242 102 102 102 1.0
15434 0.837838 0.249249 0.764097 102 102 102 1.0
15435 0.765766 -0.667668 1.032177 102 102 102 1.0
15436 -0.677678 -0.295295 0.546446 102 102 102 1.0
15437 -0.293293 0.207207 0.128956 102 102 102 1.0
15438 -0.645646 -0.435435 0.606462 102 102 102 1.0
15439 0.973974 0.055055 0.951656 102 102 102 1.0
15440 -0.095095 -0.145145 0.030110 102 102 102 1.0
15441 0.101101 0.839840 0.715552 102 102 102 1.0
15442 -0.299299 0.409409 0.257196 102 102 102 1.0
15443 0.511512 0.523524 0.535721 102 102 102 1.0
15444 0.061061 0.887888 0.792073 102 102 102 1.0
15445 -0.419419 0.685686 0.646078 102 102 102 1.0
15446 0.041041 -0.155155 0.025757 102 102 102 1.0
15447 -0.145145 -0.831832 0.713011 102 102 102 1.0
15448 -0.295295 0.687688 0.560114 102 102 102 1.0
15449 -0.625626 -0.509510 0.651007 102 102 102 1.0
15450 0.429429 0.953954 1.094438 102 102 102 1.0
15451 -0.063063 -0.595596 0.358711 102 102 102 1.0
15452 -0.543544 -0.135135 0.313701 102 102 102 1.0
15453 0.907908 -0.159159 0.849628 102 102 102 1.0
15454 -0.757758 -0.641642 0.985901 102 102 102 1.0
15455 -0.015015 -0.973974 0.948851 102 102 102 1.0
15456 0.649650 -0.887888 1.210390 102 102 102 1.0
15457 0.843844 -0.251251 0.775200 102 102 102 1.0
15458 0.683684 0.159159 0.492755 102 102 102 1.0
15459 0.251251 0.651652 0.487777 102 102 102 1.0
15460 0.953954 0.043043 0.911881 102 102 102 1.0
15461 0.069069 -0.893894 0.803817 102 102 102 1.0
15462 -0.333333 0.821822 0.786502 102 102 102 1.0
15463 0.557558 -0.731732 0.846302 102 102 102 1.0
15464 -0.913914 0.387387 0.985308 102 102 102 1.0
15465 -0.241241 0.893894 0.857244 102 102 102 1.0
15466 -0.497497 -0.551552 0.551713 102 102 102 1.0
15467 -0.621622 -0.649650 0.808458 102 102 102 1.0
15468 0.797798 0.679680 1.098446 102 102 102 1.0
15469 0.145145 -0.735736 0.562374 102 102 102 1.0
15470 -0.721722 0.063063 0.524859 102 102 102 1.0
15471 -0.975976 0.955956 1.866381 102 102 102 1.0
15472 -0.401401 0.175175 0.191809 102 102 102 1.0
15473 -0.631632 -0.241241 0.457156 102 102 102 1.0
15474 0.777778 -0.293293 0.690959 102 102 102 1.0
15475 -0.945946 0.375375 1.035720 102 102 102 1.0
15476 0.795796 0.487487 0.870935 102 102 102 1.0
15477 0.749750 -0.163163 0.588747 102 102 102 1.0
15478 0.121121 0.873874 0.778326 102 102 102 1.0
15479 0.241241 0.533534 0.342855 102 102 102 1.0
15480 -0.203203 -0.421421 0.218888 102 102 102 1.0
15481 -0.637638 -0.251251 0.469709 102 102 102 1.0
15482 0.003003 0.271271 0.073597 102 102 102 1.0
15483 -0.865866 0.405405 0.914077 102 102 102 1.0
15484 -0.555556 -0.151151 0.331489 102 102 102 1.0
15485 -0.399399 0.571572 0.486214 102 102 102 1.0
15486 0.651652 -0.287287 0.507184 102 102 102 1.0
15487 -0.947948 0.039039 0.900129 102 102 102 1.0
15488 0.055055 -0.497497 0.250535 102 102 102 1.0
15489 0.093093 -0.035035 0.009894 102 102 102 1.0
15490 -0.881882 0.307307 0.872153 102 102 102 1.0
15491 0.797798 0.063063 0.640458 102 102 102 1.0
15492 0.799800 -0.957958 1.557363 102 102 102 1.0
15493 0.873874 -0.575576 1.094943 102 102 102 1.0
15494 0.087087 -0.723724 0.531360 102 102 102 1.0
15495 0.651652 0.793794 1.054758 102 102 102 1.0
15496 -0.209209 0.471471 0.266054 102 102 102 1.0
15497 -0.791792 0.591592 0.976915 102 102 102 1.0
15498 -0.339339 0.753754 0.683296 102 102 102 1.0
15499 -0.777778 0.565566 0.924803 102 102 102 1.0
15500 0.623624 -0.863864 1.135167 102 102 102 1.0
15501 0.355355 -0.549550 0.428282 102 102 102 1.0
15502 -0.871872 -0.485485 0.995857 102 102 102 1.0
15503 -0.649650 -0.687688 0.894959 102 102 102 1.0
15504 -0.107107 -0.355355 0.137749 102 102 102 1.0
15505 0.409409 0.687688 0.640530 102 102 102 1.0
15506 -0.119119 -0.955956 0.928041 102 102 102 1.0
15507 -0.197197 0.449449 0.240892 102 102 102 1.0
15508 -0.049049 0.139139 0.021766 102 102 102 1.0
15509 -0.181181 -0.757758 0.607023 102 102 102 1.0
15510 0.461461 -0.945946 1.107760 102 102 102 1.0
15511 -0.585586 0.411411 0.512170 102 102 102 1.0
15512 -0.907908 -0.313313 0.922462 102 102 102 1.0
15513 0.621622 0.471471 0.608699 102 102 102 1.0
15514 0.171171 -0.917918 0.871873 102 102 102 1.0
15515 -0.217217 0.937938 0.926911 102 102 102 1.0
15516 0.433433 -0.207207 0.230799 102 102 102 1.0
15517 0.789790 0.363363 0.755801 102 102 102 1.0
15518 0.853854 -0.401401 0.890189 102 102 102 1.0
15519 -0.083083 0.315315 0.106327 102 102 102 1.0
15520 -0.947948 0.677678 1.357852 102 102 102 1.0
15521 0.005005 -0.521522 0.272010 102 102 102 1.0
15522 -0.989990 0.673674 1.433916 102 102 102 1.0
15523 0.787788 -0.905906 1.441275 102 102 102 1.0
15524 0.555556 0.425425 0.489629 102 102 102 1.0
15525 -0.905906 -0.019019 0.821027 102 102 102 1.0
15526 -0.151151 0.273273 0.097525 102 102 102 1.0
15527 0.915916 -0.593594 1.191255 102 102 102 1.0
15528 0.153153 -0.535536 0.310254 102 102 102 1.0
15529 -0.047047 -0.487487 0.239857 102 102 102 1.0
15530 0.035035 0.057057 0.004483 102 102 102 1.0
15531 0.319319 -0.795796 0.735256 102 102 102 1.0
15532 0.235235 -0.773774 0.654061 102 102 102 1.0
15533 -0.185185 -0.969970 0.975135 102 102 102 1.0
15534 -0.741742 0.299299 0.639761 102 102 102 1.0
15535 -0.005005 -0.351351 0.123473 102 102 102 1.0
15536 0.193193 -0.485485 0.273020 102 102 102 1.0
15537 -0.707708 0.259259 0.568066 102 102 102 1.0
15538 0.141141 0.019019 0.020283 102 102 102 1.0
15539 -0.753754 0.551552 0.872354 102 102 102 1.0
15540 -0.303303 0.625626 0.483400 102 102 102 1.0
15541 0.319319 -0.755756 0.673132 102 102 102 1.0
15542 -0.907908 -0.225225 0.875023 102 102 102 1.0
15543 -0.409409 -0.431431 0.353749 102 102 102 1.0
15544 -0.563564 0.733734 0.855969 102 102 102 1.0
15545 -0.707708 0.011011 0.500971 102 102 102 1.0
15546 -0.463463 -0.733734 0.753164 102 102 102 1.0
15547 -0.743744 0.397397 0.711079 102 102 102 1.0
15548 -0.937938 -0.603604 1.244065 102 102 102 1.0
15549 -0.373373 0.873874 0.903063 102 102 102 1.0
15550 0.155155 0.301301 0.114856 102 102 102 1.0
15551 -0.437437 0.507508 0.448915 102 102 102 1.0
15552 0.083083 0.911912 0.838486 102 102 102 1.0
15553 0.227227 -0.555556 0.360274 102 102 102 1.0
15554 0.997998 0.041041 0.997684 102 102 102 1.0
15555 0.071071 -0.225225 0.055777 102 102 102 1.0
15556 -0.689690 -0.501502 0.727176 102 102 102 1.0
15557 -0.941942 -0.287287 0.969789 102 102 102 1.0
15558 0.089089 -0.733734 0.546302 102 102 102 1.0
15559 0.479479 0.445445 0.428322 102 102 102 1.0
15560 0.295295 -0.989990 1.067279 102 102 102 1.0
15561 0.709710 0.657658 0.936201 102 102 102 1.0
15562 -0.149149 -0.087087 0.029830 102 102 102 1.0
15563 -0.699700 0.421421 0.667176 102 102 102 1.0
15564 0.801802 -0.087087 0.650470 102 102 102 1.0
15565 -0.385385 -0.249249 0.210647 102 102 102 1.0
15566 -0.455455 -0.787788 0.828049 102 102 102 1.0
15567 0.093093 0.713714 0.518054 102 102 102 1.0
15568 -0.985986 0.753754 1.540313 102 102 102 1.0
15569 0.525526 0.195195 0.314278 102 102 102 1.0
15570 -0.129129 0.255255 0.081830 102 102 102 1.0
15571 0.847848 -0.629630 1.115279 102 102 102 1.0
15572 0.865866 0.257257 0.815905 102 102 102 1.0
15573 0.065065 0.419419 0.180146 102 102 102 1.0
15574 -0.087087 0.269269 0.080090 102 102 102 1.0
15575 0.281281 0.953954 0.989147 102 102 102 1.0
15576 -0.449449 0.011011 0.202126 102 102 102 1.0
15577 0.155155 -0.001001 0.024074 102 102 102 1.0
15578 0.443443 0.039039 0.198166 102 102 102 1.0
15579 -0.105105 0.635636 0.415080 102 102 102 1.0
15580 0.223223 -0.259259 0.117044 102 102 102 1.0
15581 0.399399 0.243243 0.218687 102 102 102 1.0
15582 0.053053 0.665666 0.445925 102 102 102 1.0
15583 -0.901902 -0.471471 1.035712 102 102 102 1.0
15584 -0.455455 -0.833834 0.902719 102 102 102 1.0
15585 0.619620 0.845846 1.099384 102 102 102 1.0
15586 0.779780 -0.801802 1.250943 102 102 102 1.0
15587 -0.501502 0.741742 0.801685 102 102 102 1.0
15588 -0.265265 -0.423423 0.249653 102 102 102 1.0
15589 -0.593594 -0.967968 1.289315 102 102 102 1.0
15590 -0.507508 0.451451 0.461372 102 102 102 1.0
15591 -0.335335 0.825826 0.794438 102 102 102 1.0
15592 0.751752 0.129129 0.581805 102 102 102 1.0
15593 0.493493 -0.087087 0.251120 102 102 102 1.0
15594 0.689690 -0.329329 0.584130 102 102 102 1.0
15595 0.095095 0.617618 0.390495 102 102 102 1.0
15596 0.729730 0.643644 0.946783 102 102 102 1.0
15597 -0.037037 -0.253253 0.065509 102 102 102 1.0
15598 -0.123123 -0.597598 0.372282 102 102 102 1.0
15599 0.331331 0.367367 0.244739 102 102 102 1.0
15600 -0.083083 -0.435435 0.196507 102 102 102 1.0
15601 -0.479479 0.659660 0.665051 102 102 102 1.0
15602 0.145145 -0.003003 0.021076 102 102 102 1.0
15603 0.429429 -0.057057 0.187665 102 102 102 1.0
15604 -0.925926 -0.265265 0.927704 102 102 102 1.0
15605 0.225225 -0.307307 0.145164 102 102 102 1.0
15606 0.161161 0.053053 0.028788 102 102 102 1.0
15607 0.577578 -0.765766 0.919993 102 102 102 1.0
15608 -0.199199 -0.059059 0.043168 102 102 102 1.0
15609 0.839840 0.291291 0.790182 102 102 102 1.0
15610 0.347347 -0.077077 0.126591 102 102 102 1.0
15611 0.231231 -0.113113 0.066262 102 102 102 1.0
15612 -0.811812 -0.917918 1.501612 102 102 102 1.0
15613 0.485485 -0.223223 0.285525 102 102 102 1.0
15614 -0.861862 0.559560 1.055913 102 102 102 1.0
15615 0.969970 -0.971972 1.885571 102 102 102 1.0
15616 0.561562 0.107107 0.326823 102 102 102 1.0
15617 -0.007007 -0.019019 0.000411 102 102 102 1.0
15618 -0.337337 -0.583584 0.454366 102 102 102 1.0
15619 0.475475 0.563564 0.543681 102 102 102 1.0
15620 0.323323 0.309309 0.200210 102 102 102 1.0
15621 0.781782 -0.233233 0.665581 102 102 102 1.0
15622 0.215215 -0.671672 0.497460 102 102 102 1.0
15623 -0.953954 -0.303303 1.002021 102 102 102 1.0
15624 -0.065065 0.141141 0.024154 102 102 102 1.0
15625 0.977978 -0.153153 0.979897 102 102 102 1.0
15626 0.331331 -0.439439 0.302887 102 102 102 1.0
15627 0.815816 -0.829830 1.354173 102 102 102 1.0
15628 0.497497 -0.937938 1.127231 102 102 102 1.0
15629 0.035035 -0.409409 0.168844 102 102 102 1.0
15630 0.401401 -0.275275 0.236900 102 102 102 1.0
15631 -0.715716 -0.675676 0.968787 102 102 102 1.0
15632 0.255255 -0.275275 0.140932 102 102 102 1.0
15633 -0.711712 -0.231231 0.560001 102 102 102 1.0
15634 0.611612 0.073073 0.379408 102 102 102 1.0
15635 -0.369369 -0.103103 0.147064 102 102 102 1.0
15636 -0.979980 0.409409 1.127977 102 102 102 1.0
15637 -0.077077 0.089089 0.013878 102 102 102 1.0
15638 0.993994 -0.315315 1.087448 102 102 102 1.0
15639 0.845846 0.425425 0.896442 102 102 102 1.0
15640 0.181181 -0.005005 0.032852 102 102 102 1.0
15641 -0.919920 -0.127127 0.862414 102 102 102 1.0
15642 0.109109 -0.201201 0.052387 102 102 102 1.0
15643 -0.657658 0.563564 0.750117 102 102 102 1.0
15644 -0.503504 -0.607608 0.622703 102 102 102 1.0
15645 -0.371371 -0.991992 1.121965 102 102 102 1.0
15646 -0.025025 0.257257 0.066808 102 102 102 1.0
15647 -0.719720 -0.151151 0.540843 102 102 102 1.0
15648 0.987988 -0.827828 1.661419 102 102 102 1.0
15649 0.161161 -0.781782 0.637156 102 102 102 1.0
15650 0.997998 -0.663664 1.436449 102 102 102 1.0
15651 0.813814 -0.193193 0.699617 102 102 102 1.0
15652 0.349349 0.063063 0.126022 102 102 102 1.0
15653 0.759760 -0.997998 1.573235 102 102 102 1.0
15654 -0.671672 0.729730 0.983648 102 102 102 1.0
15655 -0.133133 0.493493 0.261260 102 102 102 1.0
15656 -0.697698 0.675676 0.943320 102 102 102 1.0
15657 0.555556 -0.165165 0.335921 102 102 102 1.0
15658 0.457457 0.157157 0.233966 102 102 102 1.0
15659 -0.967968 -0.227227 0.988594 102 102 102 1.0
15660 0.549550 0.177177 0.333396 102 102 102 1.0
15661 0.945946 0.099099 0.904634 102 102 102 1.0
15662 -0.407407 0.039039 0.167505 102 102 102 1.0
15663 0.881882 -0.153153 0.801172 102 102 102 1.0
15664 0.129129 -0.229229 0.069220 102 102 102 1.0
15665 0.513514 -0.907908 1.087993 102 102 102 1.0
15666 -0.629630 0.031031 0.397396 102 102 102 1.0
15667 0.177177 0.341341 0.147906 102 102 102 1.0
15668 0.299299 0.099099 0.099401 102 102 102 1.0
15669 -0.791792 -0.953954 1.536962 102 102 102 1.0
15670 -0.485485 -0.839840 0.941027 102 102 102 1.0
15671 -0.921922 -0.239239 0.907175 102 102 102 1.0
15672 0.083083 -0.981982 0.971191 102 102 102 1.0
15673 -0.979980 0.017017 0.960650 102 102 102 1.0
15674 -0.417417 -0.523524 0.448314 102 102 102 1.0
15675 0.201201 0.181181 0.073309 102 102 102 1.0
15676 -0.871872 -0.145145 0.781228 102 102 102 1.0
15677 0.565566 0.447447 0.520074 102 102 102 1.0
15678 -0.545546 -0.717718 0.812739 102 102 102 1.0
15679 0.279279 -0.839840 0.783328 102 102 102 1.0
15680 -0.233233 0.991992 1.038446 102 102 102 1.0
15681 -0.155155 -0.805806 0.673396 102 102 102 1.0
15682 -0.873874 0.723724 1.287432 102 102 102 1.0
15683 0.373373 0.731732 0.674839 102 102 102 1.0
15684 0.259259 -0.267267 0.138647 102 102 102 1.0
15685 -0.277277 -0.553554 0.383304 102 102 102 1.0
15686 -0.013013 -0.531532 0.282695 102 102 102 1.0
15687 -0.387387 -0.493493 0.393605 102 102 102 1.0
15688 0.439439 -0.889890 0.985011 102 102 102 1.0
15689 0.891892 -0.779780 1.403528 102 102 102 1.0
15690 0.931932 -0.033033 0.869588 102 102 102 1.0
15691 -0.521522 -0.765766 0.858382 102 102 102 1.0
15692 0.149149 -0.411411 0.191505 102 102 102 1.0
15693 -0.101101 0.291291 0.095072 102 102 102 1.0
15694 0.283283 0.443443 0.276891 102 102 102 1.0
15695 -0.727728 -0.059059 0.533076 102 102 102 1.0
15696 -0.819820 0.297297 0.760490 102 102 102 1.0
15697 0.751752 -0.385385 0.713653 102 102 102 1.0
15698 0.087087 0.037037 0.008956 102 102 102 1.0
15699 -0.837838 0.923924 1.555608 102 102 102 1.0
15700 0.905906 -0.331331 0.930446 102 102 102 1.0
15701 0.957958 0.367367 1.052642 102 102 102 1.0
15702 0.563564 -0.879880 1.091792 102 102 102 1.0
15703 0.067067 -0.155155 0.028571 102 102 102 1.0
15704 0.475475 0.021021 0.226519 102 102 102 1.0
15705 0.905906 0.099099 0.830486 102 102 102 1.0
15706 0.445445 -0.405405 0.362775 102 102 102 1.0
15707 -0.561562 -0.483483 0.549108 102 102 102 1.0
15708 0.473473 -0.221221 0.273116 102 102 102 1.0
15709 0.277277 0.103103 0.087513 102 102 102 1.0
15710 -0.929930 -0.305305 0.957981 102 102 102 1.0
15711 -0.087087 -0.859860 0.746943 102 102 102 1.0
15712 0.795796 0.791792 1.260225 102 102 102 1.0
15713 -0.287287 0.739740 0.629749 102 102 102 1.0
15714 -0.283283 0.853854 0.809316 102 102 102 1.0
15715 -0.231231 0.695696 0.537460 102 102 102 1.0
15716 0.145145 0.081081 0.027641 102 102 102 1.0
15717 -0.217217 0.167167 0.075128 102 102 102 1.0
15718 0.873874 0.817818 1.432482 102 102 102 1.0
15719 -0.515516 0.017017 0.266046 102 102 102 1.0
15720 -0.119119 0.835836 0.712811 102 102 102 1.0
15721 0.353353 -0.325325 0.230695 102 102 102 1.0
15722 0.003003 -0.255255 0.065164 102 102 102 1.0
15723 0.911912 0.757758 1.405780 102 102 102 1.0
15724 -0.707708 0.121121 0.515521 102 102 102 1.0
15725 0.471471 0.835836 0.920907 102 102 102 1.0
15726 -0.971972 0.975976 1.897259 102 102 102 1.0
15727 -0.483483 0.449449 0.435761 102 102 102 1.0
15728 0.755756 -0.263263 0.640474 102 102 102 1.0
15729 0.393393 0.297297 0.243144 102 102 102 1.0
15730 0.707708 -0.447447 0.701059 102 102 102 1.0
15731 0.195195 0.631632 0.437060 102 102 102 1.0
15732 -0.635636 0.287287 0.486567 102 102 102 1.0
15733 0.267267 -0.799800 0.711111 102 102 102 1.0
15734 -0.429429 0.535536 0.471208 102 102 102 1.0
15735 0.871872 -0.585586 1.103071 102 102 102 1.0
15736 -0.365365 -0.543544 0.428931 102 102 102 1.0
15737 0.829830 -0.351351 0.812065 102 102 102 1.0
15738 -0.913914 0.865866 1.584962 102 102 102 1.0
15739 0.293293 0.355355 0.212298 102 102 102 1.0
15740 -0.701702 0.125125 0.508042 102 102 102 1.0
15741 -0.415415 -0.505506 0.428106 102 102 102 1.0
15742 -0.335335 -0.421421 0.290046 102 102 102 1.0
15743 0.965966 -0.979980 1.893451 102 102 102 1.0
15744 -0.699700 0.625626 0.880987 102 102 102 1.0
15745 -0.513514 0.551552 0.567905 102 102 102 1.0
15746 0.517518 -0.143143 0.288314 102 102 102 1.0
15747 -0.137137 0.677678 0.478054 102 102 102 1.0
15748 -0.913914 0.297297 0.923624 102 102 102 1.0
15749 -0.795796 -0.497497 0.880795 102 102 102 1.0
15750 0.901902 -0.103103 0.824057 102 102 102 1.0
15751 0.603604 0.401401 0.525460 102 102 102 1.0
15752 0.643644 -0.305305 0.507488 102 102 102 1.0
15753 0.285285 -0.315315 0.180811 102 102 102 1.0
15754 -0.843844 -0.717718 1.227191 102 102 102 1.0
15755 0.019019 0.955956 0.914214 102 102 102 1.0
15756 0.173173 0.231231 0.083457 102 102 102 1.0
15757 -0.871872 0.315315 0.859584 102 102 102 1.0
15758 -0.477477 -0.955956 1.141837 102 102 102 1.0
15759 -0.585586 -0.443443 0.539553 102 102 102 1.0
15760 0.947948 0.855856 1.631095 102 102 102 1.0
15761 -0.013013 0.637638 0.406751 102 102 102 1.0
15762 -0.989990 -0.767768 1.569548 102 102 102 1.0
15763 -0.903904 -0.233233 0.871440 102 102 102 1.0
15764 0.349349 -0.817818 0.790871 102 102 102 1.0
15765 0.659660 0.153153 0.458607 102 102 102 1.0
15766 0.073073 -0.003003 0.005349 102 102 102 1.0
15767 0.477477 -0.693694 0.709196 102 102 102 1.0
15768 -0.255255 0.153153 0.088611 102 102 102 1.0
15769 0.223223 -0.563564 0.367433 102 102 102 1.0
15770 0.165165 0.543544 0.322719 102 102 102 1.0
15771 -0.605606 -0.365365 0.500250 102 102 102 1.0
15772 0.803804 -0.659660 1.081251 102 102 102 1.0
15773 -0.035035 0.255255 0.066383 102 102 102 1.0
15774 -0.203203 0.451451 0.245100 102 102 102 1.0
15775 -0.715716 0.937938 1.391977 102 102 102 1.0
15776 0.895896 -0.607608 1.171816 102 102 102 1.0
15777 -0.023023 -0.359359 0.129669 102 102 102 1.0
15778 0.327327 -0.883884 0.888394 102 102 102 1.0
15779 1.000000 0.385385 1.148522 102 102 102 1.0
15780 -0.751752 0.409409 0.732747 102 102 102 1.0
15781 0.059059 0.843844 0.715560 102 102 102 1.0
15782 0.559560 -0.925926 1.170446 102 102 102 1.0
15783 0.541542 -0.551552 0.597476 102 102 102 1.0
15784 0.563564 0.483483 0.551360 102 102 102 1.0
15785 0.769770 -0.821822 1.267937 102 102 102 1.0
15786 -0.711712 0.171171 0.535833 102 102 102 1.0
15787 0.897898 -0.933934 1.678453 102 102 102 1.0
15788 -0.445445 0.743744 0.751576 102 102 102 1.0
15789 0.025025 -0.683684 0.468050 102 102 102 1.0
15790 -0.343343 0.273273 0.192563 102 102 102 1.0
15791 0.431431 -0.547548 0.485941 102 102 102 1.0
15792 -0.267267 -0.939940 0.954919 102 102 102 1.0
15793 -0.273273 0.587588 0.419937 102 102 102 1.0
15794 -0.931932 0.099099 0.878318 102 102 102 1.0
15795 -0.065065 0.591592 0.354214 102 102 102 1.0
15796 -0.321321 -0.483483 0.337004 102 102 102 1.0
15797 -0.971972 -0.483483 1.178486 102 102 102 1.0
15798 0.543544 0.399399 0.454959 102 102 102 1.0
15799 -0.855856 0.621622 1.118903 102 102 102 1.0
15800 0.437437 -0.811812 0.850390 102 102 102 1.0
15801 0.085085 0.643644 0.421517 102 102 102 1.0
15802 -0.797798 0.361361 0.767063 102 102 102 1.0
15803 -0.317317 -0.741742 0.650871 102 102 102 1.0
15804 -0.457457 -0.681682 0.673957 102 102 102 1.0
15805 0.193193 -0.945946 0.932137 102 102 102 1.0
15806 0.113113 -0.781782 0.623977 102 102 102 1.0
15807 0.077077 -0.729730 0.538446 102 102 102 1.0
15808 0.277277 0.249249 0.139008 102 102 102 1.0
15809 -0.845846 0.233233 0.769853 102 102 102 1.0
15810 0.725726 -0.777778 1.131616 102 102 102 1.0
15811 0.533534 0.897898 1.090879 102 102 102 1.0
15812 0.691692 0.939940 1.361925 102 102 102 1.0
15813 -0.191191 0.569570 0.360964 102 102 102 1.0
15814 0.737738 0.465465 0.760915 102 102 102 1.0
15815 0.873874 -0.261261 0.831913 102 102 102 1.0
15816 0.481481 -0.077077 0.237765 102 102 102 1.0
15817 0.029029 -0.001001 0.000844 102 102 102 1.0
15818 0.003003 -0.163163 0.026631 102 102 102 1.0
15819 -0.907908 0.271271 0.897885 102 102 102 1.0
15820 0.995996 0.825826 1.673996 102 102 102 1.0
15821 -0.105105 0.007007 0.011096 102 102 102 1.0
15822 0.567568 0.781782 0.933316 102 102 102 1.0
15823 -0.279279 0.615616 0.456980 102 102 102 1.0
15824 0.669670 0.039039 0.449982 102 102 102 1.0
15825 -0.957958 0.893894 1.716730 102 102 102 1.0
15826 -0.379379 0.651652 0.568579 102 102 102 1.0
15827 -0.647648 0.925926 1.276786 102 102 102 1.0
15828 -0.347347 -0.235235 0.175986 102 102 102 1.0
15829 -0.841842 -0.509510 0.968298 102 102 102 1.0
15830 0.201201 -0.845846 0.755937 102 102 102 1.0
15831 -0.067067 0.441441 0.199369 102 102 102 1.0
15832 -0.413413 0.715716 0.683160 102 102 102 1.0
15833 -0.605606 -0.979980 1.327119 102 102 102 1.0
15834 -0.179179 0.701702 0.524490 102 102 102 1.0
15835 0.391391 -0.361361 0.283769 102 102 102 1.0
15836 0.563564 0.219219 0.365661 102 102 102 1.0
15837 -0.317317 0.455455 0.308130 102 102 102 1.0
15838 -0.431431 -0.043043 0.187986 102 102 102 1.0
15839 -0.083083 0.447447 0.207112 102 102 102 1.0
15840 -0.951952 -0.187187 0.941252 102 102 102 1.0
15841 -0.663664 0.909910 1.268386 102 102 102 1.0
15842 0.361361 -0.717718 0.645701 102 102 102 1.0
15843 0.591592 0.053053 0.352795 102 102 102 1.0
15844 0.261261 0.809810 0.724049 102 102 102 1.0
15845 0.911912 -0.925926 1.688922 102 102 102 1.0
15846 0.223223 -0.833834 0.745107 102 102 102 1.0
15847 -0.295295 -0.145145 0.108266 102 102 102 1.0
15848 0.865866 -0.277277 0.826606 102 102 102 1.0
15849 -0.155155 0.215215 0.070391 102 102 102 1.0
15850 -0.803804 -0.781782 1.257283 102 102 102 1.0
15851 -0.901902 -0.331331 0.923208 102 102 102 1.0
15852 0.725726 0.731732 1.062109 102 102 102 1.0
15853 0.321321 -0.027027 0.103978 102 102 102 1.0
15854 -0.849850 0.209209 0.766013 102 102 102 1.0
15855 0.107107 -0.731732 0.546903 102 102 102 1.0
15856 -0.727728 -0.515516 0.795344 102 102 102 1.0
15857 0.577578 0.239239 0.390831 102 102 102 1.0
15858 0.023023 0.107107 0.012002 102 102 102 1.0
15859 -0.849850 -0.449449 0.924250 102 102 102 1.0
15860 -0.211211 -0.931932 0.913107 102 102 102 1.0
15861 0.379379 -0.225225 0.194655 102 102 102 1.0
15862 -0.201201 -0.963964 0.969708 102 102 102 1.0
15863 -0.189189 -0.521522 0.307777 102 102 102 1.0
15864 -0.601602 -0.417417 0.536162 102 102 102 1.0
15865 0.103103 -0.761762 0.590911 102 102 102 1.0
15866 0.941942 0.941942 1.774509 102 102 102 1.0
15867 0.385385 -0.665666 0.591633 102 102 102 1.0
15868 0.083083 0.113113 0.019697 102 102 102 1.0
15869 0.661662 0.373373 0.577204 102 102 102 1.0
15870 -0.651652 -0.573574 0.753637 102 102 102 1.0
15871 -0.933934 -0.471471 1.094518 102 102 102 1.0
15872 -0.111111 -0.903904 0.829388 102 102 102 1.0
15873 0.851852 -0.881882 1.503367 102 102 102 1.0
15874 0.463463 -0.789790 0.838566 102 102 102 1.0
15875 -0.053053 0.751752 0.567945 102 102 102 1.0
15876 0.691692 -0.855856 1.210927 102 102 102 1.0
15877 0.873874 0.541542 1.056923 102 102 102 1.0
15878 -0.641642 0.877878 1.182374 102 102 102 1.0
15879 0.993994 0.977978 1.944465 102 102 102 1.0
15880 0.037037 0.233233 0.055769 102 102 102 1.0
15881 0.063063 -0.283283 0.084226 102 102 102 1.0
15882 -0.265265 0.401401 0.231489 102 102 102 1.0
15883 -0.021021 0.923924 0.854077 102 102 102 1.0
15884 0.041041 0.667668 0.447464 102 102 102 1.0
15885 -0.327327 0.983984 1.075368 102 102 102 1.0
15886 -0.995996 0.387387 1.142077 102 102 102 1.0
15887 -0.355355 0.595596 0.481012 102 102 102 1.0
15888 -0.993994 0.171171 1.017324 102 102 102 1.0
15889 0.537538 0.759760 0.866181 102 102 102 1.0
15890 0.735736 0.345345 0.660571 102 102 102 1.0
15891 -0.701702 -0.881882 1.270101 102 102 102 1.0
15892 0.643644 -0.983984 1.382502 102 102 102 1.0
15893 0.623624 -0.761762 0.969187 102 102 102 1.0
15894 -0.363363 -0.321321 0.235280 102 102 102 1.0
15895 -0.715716 -0.101101 0.522470 102 102 102 1.0
15896 -0.511512 0.325325 0.367481 102 102 102 1.0
15897 -0.325325 -0.877878 0.876506 102 102 102 1.0
15898 0.257257 0.377377 0.208595 102 102 102 1.0
15899 -0.443443 0.905906 1.017308 102 102 102 1.0
15900 -0.659660 -0.107107 0.446623 102 102 102 1.0
15901 0.843844 0.947948 1.610678 102 102 102 1.0
15902 0.423423 -0.659660 0.614438 102 102 102 1.0
15903 0.697698 -0.105105 0.497829 102 102 102 1.0
15904 0.251251 -0.753754 0.631272 102 102 102 1.0
15905 -0.107107 0.723724 0.535248 102 102 102 1.0
15906 -0.923924 0.725726 1.380313 102 102 102 1.0
15907 -0.535536 -0.571572 0.613492 102 102 102 1.0
15908 -0.571572 -0.833834 1.021973 102 102 102 1.0
15909 0.815816 0.081081 0.672130 102 102 102 1.0
15910 0.585586 -0.691692 0.821348 102 102 102 1.0
15911 0.625626 0.211211 0.436018 102 102 102 1.0
15912 0.591592 0.731732 0.885412 102 102 102 1.0
15913 0.761762 0.519520 0.850182 102 102 102 1.0
15914 0.659660 0.009009 0.435232 102 102 102 1.0
15915 -0.971972 0.797798 1.581211 102 102 102 1.0
15916 0.667668 0.893894 1.244826 102 102 102 1.0
15917 -0.995996 -0.459459 1.203111 102 102 102 1.0
15918 -0.399399 0.401401 0.320643 102 102 102 1.0
15919 0.287287 0.799800 0.722214 102 102 102 1.0
15920 0.997998 0.067067 1.000498 102 102 102 1.0
15921 -0.855856 0.855856 1.464978 102 102 102 1.0
15922 -0.051051 0.905906 0.823272 102 102 102 1.0
15923 -0.075075 -0.413413 0.176547 102 102 102 1.0
15924 0.539540 -0.887888 1.079448 102 102 102 1.0
15925 -0.825826 0.313313 0.780154 102 102 102 1.0
15926 -0.859860 0.249249 0.801484 102 102 102 1.0
15927 0.639640 -0.027027 0.409869 102 102 102 1.0
15928 0.673674 -0.875876 1.220995 102 102 102 1.0
15929 0.611612 -0.519520 0.643969 102 102 102 1.0
15930 0.523524 0.451451 0.477885 102 102 102 1.0
15931 -0.799800 0.621622 1.026093 102 102 102 1.0
15932 -0.893894 0.659660 1.234197 102 102 102 1.0
15933 -0.237237 -0.243243 0.115449 102 102 102 1.0
15934 -0.327327 0.577578 0.440739 102 102 102 1.0
15935 0.389389 0.035035 0.152852 102 102 102 1.0
15936 -0.705706 0.715716 1.010270 102 102 102 1.0
15937 -0.255255 0.755756 0.636322 102 102 102 1.0
15938 -0.223223 0.517518 0.317653 102 102 102 1.0
15939 0.697698 -0.025025 0.487408 102 102 102 1.0
15940 0.595596 -0.027027 0.355465 102 102 102 1.0
15941 0.595596 0.783784 0.969051 102 102 102 1.0
15942 0.191191 0.529530 0.316956 102 102 102 1.0
15943 -0.203203 -0.335335 0.153741 102 102 102 1.0
15944 0.073073 0.017017 0.005629 102 102 102 1.0
15945 0.611612 0.713714 0.883456 102 102 102 1.0
15946 -0.709710 0.635636 0.907721 102 102 102 1.0
15947 0.863864 0.005005 0.746286 102 102 102 1.0
15948 0.525526 -0.491491 0.517741 102 102 102 1.0
15949 -0.299299 -0.189189 0.125373 102 102 102 1.0
15950 -0.549550 -0.227227 0.353637 102 102 102 1.0
15951 0.953954 -0.607608 1.279215 102 102 102 1.0
15952 -0.743744 -0.567568 0.875288 102 102 102 1.0
15953 0.901902 -0.275275 0.889203 102 102 102 1.0
15954 -0.111111 -0.109109 0.024250 102 102 102 1.0
15955 -0.075075 0.729730 0.538142 102 102 102 1.0
15956 -0.795796 -0.451451 0.837099 102 102 102 1.0
15957 0.557558 0.685686 0.781035 102 102 102 1.0
15958 0.601602 0.145145 0.382992 102 102 102 1.0
15959 -0.495495 -0.979980 1.205877 102 102 102 1.0
15960 -0.823824 0.673674 1.132522 102 102 102 1.0
15961 0.963964 -0.375375 1.070133 102 102 102 1.0
15962 -0.271271 -0.291291 0.158439 102 102 102 1.0
15963 0.955956 -0.171171 0.943151 102 102 102 1.0
15964 0.487487 -0.305305 0.330855 102 102 102 1.0
15965 0.215215 0.807808 0.698871 102 102 102 1.0
15966 0.723724 -0.569570 0.848186 102 102 102 1.0
15967 0.429429 0.951952 1.090622 102 102 102 1.0
15968 0.565566 0.679680 0.781829 102 102 102 1.0
15969 -0.317317 -0.361361 0.231272 102 102 102 1.0
15970 0.885886 0.401401 0.945917 102 102 102 1.0
15971 0.565566 -0.533534 0.604522 102 102 102 1.0
15972 -0.279279 0.369369 0.214431 102 102 102 1.0
15973 -0.707708 -0.793794 1.130959 102 102 102 1.0
15974 0.363363 -0.835836 0.830655 102 102 102 1.0
15975 -0.123123 0.659660 0.450310 102 102 102 1.0
15976 -0.503504 0.413413 0.424426 102 102 102 1.0
15977 -0.469469 -0.763764 0.803737 102 102 102 1.0
15978 -0.969970 -0.225225 0.991568 102 102 102 1.0
15979 0.715716 0.613614 0.888771 102 102 102 1.0
15980 -0.701702 0.821822 1.167776 102 102 102 1.0
15981 0.901902 -0.857858 1.549347 102 102 102 1.0
15982 0.743744 -0.497497 0.800659 102 102 102 1.0
15983 -0.963964 0.369369 1.065660 102 102 102 1.0
15984 -0.943944 -0.665666 1.334141 102 102 102 1.0
15985 -0.303303 -0.473473 0.316170 102 102 102 1.0
15986 -0.719720 0.693694 0.999207 102 102 102 1.0
15987 -0.897898 0.205205 0.848330 102 102 102 1.0
15988 -0.903904 0.527528 1.095328 102 102 102 1.0
15989 0.209209 -0.287287 0.126302 102 102 102 1.0
15990 -0.451451 0.315315 0.303232 102 102 102 1.0
15991 0.317317 0.851852 0.826342 102 102 102 1.0
15992 0.165165 -0.095095 0.036323 102 102 102 1.0
15993 0.597598 0.877878 1.127792 102 102 102 1.0
15994 0.569570 0.541542 0.617677 102 102 102 1.0
15995 -0.217217 0.099099 0.057004 102 102 102 1.0
15996 0.969970 0.547548 1.240650 102 102 102 1.0
15997 0.429429 0.737738 0.728667 102 102 102 1.0
15998 0.279279 0.597598 0.435120 102 102 102 1.0
15999 -0.555556 -0.049049 0.311048 102 102 102 1.0
16000 0.021021 -0.761762 0.580723 102 102 102 1.0
16001 0.171171 0.875876 0.796458 102 102 102 1.0
16002 -0.579580 0.987988 1.312033 102 102 102 1.0
16003 0.603604 0.319319 0.466302 102 102 102 1.0
16004 -0.309309 -0.109109 0.107577 102 102 102 1.0
16005 -0.893894 0.647648 1.218494 102 102 102 1.0
16006 -0.761762 0.781782 1.191464 102 102 102 1.0
16007 -0.123123 -0.155155 0.039232 102 102 102 1.0
16008 0.535536 -0.979980 1.247159 102 102 102 1.0
16009 -0.103103 -0.499499 0.260130 102 102 102 1.0
16010 0.657658 0.575576 0.763801 102 102 102 1.0
16011 -0.357357 0.221221 0.176643 102 102 102 1.0
16012 -0.645646 0.185185 0.451152 102 102 102 1.0
16013 0.777778 0.063063 0.608915 102 102 102 1.0
16014 0.895896 -0.001001 0.802630 102 102 102 1.0
16015 -0.747748 -0.745746 1.115263 102 102 102 1.0
16016 0.199199 -0.301301 0.130463 102 102 102 1.0
16017 -0.543544 -0.635636 0.699472 102 102 102 1.0
16018 0.291291 0.489489 0.324451 102 102 102 1.0
16019 0.067067 -0.709710 0.508186 102 102 102 1.0
16020 0.789790 0.417417 0.798005 102 102 102 1.0
16021 -0.901902 -0.499499 1.062927 102 102 102 1.0
16022 -0.807808 0.149149 0.674799 102 102 102 1.0
16023 -0.845846 -0.159159 0.740787 102 102 102 1.0
16024 0.595596 -0.333333 0.465845 102 102 102 1.0
16025 -0.415415 0.287287 0.255104 102 102 102 1.0
16026 -0.073073 -0.953954 0.915368 102 102 102 1.0
16027 -0.413413 0.055055 0.173942 102 102 102 1.0
16028 0.017017 0.851852 0.725941 102 102 102 1.0
16029 0.671672 0.405405 0.615496 102 102 102 1.0
16030 -0.365365 0.587588 0.478751 102 102 102 1.0
16031 -0.695696 0.417417 0.658230 102 102 102 1.0
16032 -0.575576 0.303303 0.423280 102 102 102 1.0
16033 0.755756 -0.363363 0.703200 102 102 102 1.0
16034 0.485485 0.849850 0.957941 102 102 102 1.0
16035 0.911912 0.231231 0.885051 102 102 102 1.0
16036 0.439439 0.107107 0.204579 102 102 102 1.0
16037 -0.325325 0.353353 0.230695 102 102 102 1.0
16038 0.175175 -0.445445 0.229108 102 102 102 1.0
16039 -0.953954 -0.085085 0.917268 102 102 102 1.0
16040 0.531532 0.673674 0.736362 102 102 102 1.0
16041 -0.439439 0.181181 0.225934 102 102 102 1.0
16042 0.051051 0.341341 0.119120 102 102 102 1.0
16043 -0.611612 0.239239 0.431304 102 102 102 1.0
16044 0.633634 -0.655656 0.831376 102 102 102 1.0
16045 -0.321321 -0.223223 0.153076 102 102 102 1.0
16046 -0.951952 0.295295 0.993412 102 102 102 1.0
16047 0.883884 -0.859860 1.520610 102 102 102 1.0
16048 -0.139139 0.659660 0.454511 102 102 102 1.0
16049 -0.589590 -0.845846 1.063071 102 102 102 1.0
16050 -0.443443 0.453453 0.402262 102 102 102 1.0
16051 0.147147 -0.771772 0.617284 102 102 102 1.0
16052 -0.237237 0.731732 0.591713 102 102 102 1.0
16053 0.973974 -0.563564 1.266229 102 102 102 1.0
16054 -0.119119 0.009009 0.014271 102 102 102 1.0
16055 1.000000 -0.373373 1.139408 102 102 102 1.0
16056 -1.000000 -0.285285 1.081388 102 102 102 1.0
16057 0.055055 -0.209209 0.046800 102 102 102 1.0
16058 0.099099 -0.689690 0.485492 102 102 102 1.0
16059 -0.137137 -0.249249 0.080932 102 102 102 1.0
16060 -0.155155 -0.877878 0.794743 102 102 102 1.0
16061 -0.715716 0.843844 1.224321 102 102 102 1.0
16062 0.057057 -0.933934 0.875488 102 102 102 1.0
16063 -0.529530 -0.603604 0.644739 102 102 102 1.0
16064 0.859860 -0.017017 0.739649 102 102 102 1.0
16065 0.757758 -0.619620 0.958125 102 102 102 1.0
16066 -0.897898 0.497497 1.053724 102 102 102 1.0
16067 0.497497 0.043043 0.249356 102 102 102 1.0
16068 -0.321321 -0.221221 0.152186 102 102 102 1.0
16069 0.679680 0.559560 0.775071 102 102 102 1.0
16070 -0.801802 0.841842 1.351584 102 102 102 1.0
16071 0.133133 -0.479479 0.247625 102 102 102 1.0
16072 0.399399 -0.445445 0.357942 102 102 102 1.0
16073 -0.533534 0.471471 0.506943 102 102 102 1.0
16074 -0.989990 -0.721722 1.500962 102 102 102 1.0
16075 0.143143 -0.943944 0.911520 102 102 102 1.0
16076 -0.997998 -0.967968 1.932962 102 102 102 1.0
16077 0.525526 -0.419419 0.452090 102 102 102 1.0
16078 -0.205205 -0.571572 0.368803 102 102 102 1.0
16079 0.095095 0.055055 0.012074 102 102 102 1.0
16080 -0.195195 -0.585586 0.381012 102 102 102 1.0
16081 0.065065 0.725726 0.530911 102 102 102 1.0
16082 -0.837838 0.853854 1.431039 102 102 102 1.0
16083 0.491491 0.085085 0.248803 102 102 102 1.0
16084 -0.153153 -0.019019 0.023818 102 102 102 1.0
16085 -0.145145 -0.315315 0.120491 102 102 102 1.0
16086 0.315315 0.115115 0.112675 102 102 102 1.0
16087 -0.527528 -0.479479 0.508186 102 102 102 1.0
16088 0.455455 0.173173 0.237429 102 102 102 1.0
16089 0.049049 0.661662 0.440202 102 102 102 1.0
16090 -0.701702 -0.045045 0.494414 102 102 102 1.0
16091 0.441441 -0.499499 0.444370 102 102 102 1.0
16092 -0.731732 0.965966 1.468522 102 102 102 1.0
16093 0.183183 -0.103103 0.044186 102 102 102 1.0
16094 0.879880 -0.497497 1.021692 102 102 102 1.0
16095 -0.741742 0.153153 0.573637 102 102 102 1.0
16096 0.445445 0.603604 0.562759 102 102 102 1.0
16097 -0.353353 -0.455455 0.332298 102 102 102 1.0
16098 0.579580 0.923924 1.189548 102 102 102 1.0
16099 0.313313 0.445445 0.296587 102 102 102 1.0
16100 -0.397397 0.013013 0.158094 102 102 102 1.0
16101 0.791792 0.759760 1.204169 102 102 102 1.0
16102 -0.015015 -0.051051 0.002832 102 102 102 1.0
16103 -0.239239 0.559560 0.370342 102 102 102 1.0
16104 0.435435 -0.963964 1.118831 102 102 102 1.0
16105 0.499499 -0.115115 0.262751 102 102 102 1.0
16106 -0.765766 -0.505506 0.841933 102 102 102 1.0
16107 0.899900 0.237237 0.866101 102 102 102 1.0
16108 -0.785786 0.077077 0.623400 102 102 102 1.0
16109 0.003003 -0.291291 0.084860 102 102 102 1.0
16110 -0.769770 -0.203203 0.633837 102 102 102 1.0
16111 0.347347 0.715716 0.632899 102 102 102 1.0
16112 -0.665666 0.203203 0.484402 102 102 102 1.0
16113 0.847848 0.373373 0.858254 102 102 102 1.0
16114 -0.835836 -0.315315 0.798045 102 102 102 1.0
16115 0.403403 0.331331 0.272515 102 102 102 1.0
16116 0.481481 0.077077 0.237765 102 102 102 1.0
16117 -0.717718 0.295295 0.602318 102 102 102 1.0
16118 0.411411 0.255255 0.234415 102 102 102 1.0
16119 -0.841842 0.881882 1.486413 102 102 102 1.0
16120 0.195195 -0.403403 0.200835 102 102 102 1.0
16121 0.843844 0.231231 0.765540 102 102 102 1.0
16122 -0.335335 0.411411 0.281709 102 102 102 1.0
16123 0.893894 -0.135135 0.817308 102 102 102 1.0
16124 0.897898 -0.977978 1.762662 102 102 102 1.0
16125 -0.351351 -0.513514 0.387144 102 102 102 1.0
16126 0.481481 -0.365365 0.365316 102 102 102 1.0
16127 -0.473473 0.587588 0.569436 102 102 102 1.0
16128 0.945946 0.143143 0.915304 102 102 102 1.0
16129 -0.711712 0.763764 1.089869 102 102 102 1.0
16130 -0.251251 -0.063063 0.067104 102 102 102 1.0
16131 0.841842 -0.141141 0.728619 102 102 102 1.0
16132 -0.581582 -0.345345 0.457501 102 102 102 1.0
16133 0.435435 -0.965966 1.122694 102 102 102 1.0
16134 -0.409409 0.499499 0.417116 102 102 102 1.0
16135 -0.347347 0.105105 0.131697 102 102 102 1.0
16136 -0.903904 0.617618 1.198494 102 102 102 1.0
16137 0.341341 0.963964 1.045740 102 102 102 1.0
16138 0.039039 0.121121 0.016194 102 102 102 1.0
16139 -0.989990 -0.793794 1.610189 102 102 102 1.0
16140 -0.287287 0.409409 0.250150 102 102 102 1.0
16141 -0.115115 -0.027027 0.013982 102 102 102 1.0
16142 0.891892 -0.591592 1.145452 102 102 102 1.0
16143 -0.489489 0.693694 0.720811 102 102 102 1.0
16144 -0.365365 -0.035035 0.134719 102 102 102 1.0
16145 0.905906 -0.211211 0.865276 102 102 102 1.0
16146 0.951952 -0.425425 1.087199 102 102 102 1.0
16147 0.855856 -0.661662 1.170285 102 102 102 1.0
16148 -0.267267 -0.627628 0.465348 102 102 102 1.0
16149 -0.417417 -0.013013 0.174407 102 102 102 1.0
16150 -0.877878 0.503504 1.024185 102 102 102 1.0
16151 0.453453 -0.525526 0.481797 102 102 102 1.0
16152 0.095095 -0.347347 0.129693 102 102 102 1.0
16153 -0.239239 0.187187 0.092274 102 102 102 1.0
16154 0.489489 0.619620 0.623528 102 102 102 1.0
16155 -0.637638 -0.951952 1.312794 102 102 102 1.0
16156 -0.601602 0.563564 0.679528 102 102 102 1.0
16157 -0.687688 -0.601602 0.834839 102 102 102 1.0
16158 0.539540 0.619620 0.675031 102 102 102 1.0
16159 0.099099 -0.561562 0.325172 102 102 102 1.0
16160 0.933934 -0.363363 1.004266 102 102 102 1.0
16161 -0.433433 0.877878 0.958534 102 102 102 1.0
16162 0.497497 0.813814 0.909797 102 102 102 1.0
16163 -0.643644 -0.427427 0.596971 102 102 102 1.0
16164 -0.231231 -0.575576 0.384755 102 102 102 1.0
16165 -0.139139 0.593594 0.371713 102 102 102 1.0
16166 0.189189 -0.807808 0.688346 102 102 102 1.0
16167 0.929930 0.757758 1.438967 102 102 102 1.0
16168 -0.303303 0.293293 0.178014 102 102 102 1.0
16169 -0.643644 -0.235235 0.469613 102 102 102 1.0
16170 0.471471 0.777778 0.827224 102 102 102 1.0
16171 -0.855856 0.977978 1.688930 102 102 102 1.0
16172 0.919920 0.195195 0.884354 102 102 102 1.0
16173 -0.045045 0.989990 0.982109 102 102 102 1.0
16174 -0.901902 0.711712 1.319961 102 102 102 1.0
16175 0.813814 -0.491491 0.903857 102 102 102 1.0
16176 -0.799800 0.551552 0.943889 102 102 102 1.0
16177 -0.189189 -0.507508 0.293356 102 102 102 1.0
16178 0.925926 0.763764 1.440674 102 102 102 1.0
16179 0.085085 -0.027027 0.007970 102 102 102 1.0
16180 -0.591592 -0.183183 0.383537 102 102 102 1.0
16181 0.205205 -0.407407 0.208090 102 102 102 1.0
16182 -0.743744 -0.779780 1.161211 102 102 102 1.0
16183 0.067067 -0.817818 0.673324 102 102 102 1.0
16184 -0.405405 -0.515516 0.430110 102 102 102 1.0
16185 0.185185 0.339339 0.149445 102 102 102 1.0
16186 -0.871872 -0.499499 1.009660 102 102 102 1.0
16187 -0.409409 -0.105105 0.178663 102 102 102 1.0
16188 -0.025025 -0.091091 0.008924 102 102 102 1.0
16189 0.655656 -0.983984 1.398109 102 102 102 1.0
16190 0.613614 0.997998 1.372522 102 102 102 1.0
16191 -0.059059 0.701702 0.495873 102 102 102 1.0
16192 -0.513514 0.261261 0.331954 102 102 102 1.0
16193 0.659660 0.369369 0.571585 102 102 102 1.0
16194 -0.963964 -0.181181 0.962053 102 102 102 1.0
16195 0.557558 0.351351 0.434318 102 102 102 1.0
16196 0.987988 -0.471471 1.198406 102 102 102 1.0
16197 -0.829830 0.109109 0.700522 102 102 102 1.0
16198 -0.311311 -0.737738 0.641172 102 102 102 1.0
16199 -0.883884 0.699700 1.270830 102 102 102 1.0
16200 0.119119 -0.687688 0.487104 102 102 102 1.0
16201 -0.301301 -0.811812 0.749821 102 102 102 1.0
16202 -0.371371 -0.083083 0.144819 102 102 102 1.0
16203 0.835836 -0.573574 1.027608 102 102 102 1.0
16204 0.869870 0.127127 0.772835 102 102 102 1.0
16205 0.787788 0.311311 0.717524 102 102 102 1.0
16206 0.275275 0.641642 0.487480 102 102 102 1.0
16207 0.205205 -0.785786 0.659568 102 102 102 1.0
16208 -0.211211 -0.901902 0.858037 102 102 102 1.0
16209 -0.083083 0.547548 0.306711 102 102 102 1.0
16210 -0.295295 0.549550 0.389204 102 102 102 1.0
16211 -0.069069 -0.375375 0.145677 102 102 102 1.0
16212 0.531532 0.213213 0.327986 102 102 102 1.0
16213 0.211211 -0.199199 0.084290 102 102 102 1.0
16214 0.147147 0.535536 0.308451 102 102 102 1.0
16215 -0.971972 -0.153153 0.968185 102 102 102 1.0
16216 0.695696 0.475475 0.710069 102 102 102 1.0
16217 -0.459459 0.985986 1.183271 102 102 102 1.0
16218 0.337337 0.825826 0.795785 102 102 102 1.0
16219 -0.339339 -0.975976 1.067680 102 102 102 1.0
16220 0.293293 0.133133 0.103745 102 102 102 1.0
16221 -0.893894 -0.799800 1.438726 102 102 102 1.0
16222 0.655656 0.831832 1.121829 102 102 102 1.0
16223 0.391391 0.839840 0.858518 102 102 102 1.0
16224 0.245245 0.905906 0.880811 102 102 102 1.0
16225 0.291291 0.201201 0.125333 102 102 102 1.0
16226 0.803804 0.157157 0.670799 102 102 102 1.0
16227 -0.083083 -0.597598 0.364026 102 102 102 1.0
16228 0.963964 -0.839840 1.634557 102 102 102 1.0
16229 -0.043043 -0.493493 0.245389 102 102 102 1.0
16230 0.533534 -0.855856 1.017147 102 102 102 1.0
16231 -0.071071 -0.945946 0.899865 102 102 102 1.0
16232 0.453453 0.525526 0.481797 102 102 102 1.0
16233 -0.415415 -0.071071 0.177621 102 102 102 1.0
16234 0.425425 -0.861862 0.923793 102 102 102 1.0
16235 0.973974 -0.631632 1.347584 102 102 102 1.0
16236 0.213213 -0.509510 0.305060 102 102 102 1.0
16237 -0.243243 -0.205205 0.101276 102 102 102 1.0
16238 -0.845846 0.903904 1.532497 102 102 102 1.0
16239 0.755756 0.203203 0.612458 102 102 102 1.0
16240 0.667668 0.405405 0.610134 102 102 102 1.0
16241 0.325325 0.821822 0.781228 102 102 102 1.0
16242 0.717718 0.955956 1.428970 102 102 102 1.0
16243 0.781782 -0.117117 0.624899 102 102 102 1.0
16244 -0.891892 -0.355355 0.921749 102 102 102 1.0
16245 0.271271 -0.763764 0.656923 102 102 102 1.0
16246 0.547548 0.979980 1.260169 102 102 102 1.0
16247 0.667668 0.977978 1.402221 102 102 102 1.0
16248 0.607608 -0.729730 0.901693 102 102 102 1.0
16249 -0.639640 -0.011011 0.409260 102 102 102 1.0
