ply
format ascii 1.0
comment synthetic polynomial dataset
element vertex 1210
property float x
property float y
property float z
property uchar red
property uchar green
property uchar blue
end_header
0.451613 0.241935 0.262487 102 102 102
0.467742 0.241935 0.277315 102 102 102
0.483871 0.241935 0.292664 102 102 102
0.500000 0.241935 0.308533 102 102 102
0.516129 0.241935 0.324922 102 102 102
0.532258 0.241935 0.341831 102 102 102
0.548387 0.241935 0.359261 102 102 102
0.564516 0.241935 0.377211 102 102 102
0.580645 0.241935 0.395682 102 102 102
0.596774 0.241935 0.414672 102 102 102
0.612903 0.241935 0.434183 102 102 102
0.629032 0.241935 0.454214 102 102 102
0.645161 0.241935 0.474766 102 102 102
0.661290 0.241935 0.495838 102 102 102
0.677419 0.241935 0.517430 102 102 102
0.693548 0.241935 0.539542 102 102 102
0.709677 0.241935 0.562175 102 102 102
0.725806 0.241935 0.585328 102 102 102
0.741935 0.241935 0.609001 102 102 102
0.758065 0.241935 0.633195 102 102 102
0.774194 0.241935 0.657908 102 102 102
0.790323 0.241935 0.683143 102 102 102
0.806452 0.241935 0.708897 102 102 102
0.822581 0.241935 0.735172 102 102 102
0.838710 0.241935 0.761967 102 102 102
0.854839 0.241935 0.789282 102 102 102
0.870968 0.241935 0.817118 102 102 102
0.887097 0.241935 0.845473 102 102 102
0.903226 0.241935 0.874350 102 102 102
0.919355 0.241935 0.903746 102 102 102
0.935484 0.241935 0.933663 102 102 102
0.951613 0.241935 0.964100 102 102 102
0.967742 0.241935 0.995057 102 102 102
0.983871 0.241935 1.026535 102 102 102
1.000000 0.241935 1.058533 102 102 102
-1.000000 0.258065 1.066597 102 102 102
-0.983871 0.258065 1.034599 102 102 102
-0.967742 0.258065 1.003122 102 102 102
-0.951613 0.258065 0.972164 102 102 102
-0.935484 0.258065 0.941727 102 102 102
-0.919355 0.258065 0.911811 102 102 102
-0.903226 0.258065 0.882414 102 102 102
-0.887097 0.258065 0.853538 102 102 102
-0.870968 0.258065 0.825182 102 102 102
-0.854839 0.258065 0.797347 102 102 102
-0.838710 0.258065 0.770031 102 102 102
-0.822581 0.258065 0.743236 102 102 102
-0.806452 0.258065 0.716962 102 102 102
-0.790323 0.258065 0.691207 102 102 102
-0.774194 0.258065 0.665973 102 102 102
-0.758065 0.258065 0.641259 102 102 102
-0.741935 0.258065 0.617066 102 102 102
-0.725806 0.258065 0.593392 102 102 102
-0.709677 0.258065 0.570239 102 102 102
-0.693548 0.258065 0.547607 102 102 102
-0.677419 0.258065 0.525494 102 102 102
-0.661290 0.258065 0.503902 102 102 102
-0.645161 0.258065 0.482830 102 102 102
-0.629032 0.258065 0.462279 102 102 102
-0.612903 0.258065 0.442248 102 102 102
-0.596774 0.258065 0.422737 102 102 102
-0.580645 0.258065 0.403746 102 102 102
-0.564516 0.258065 0.385276 102 102 102
-0.548387 0.258065 0.367326 102 102 102
-0.532258 0.258065 0.349896 102 102 102
-0.516129 0.258065 0.332986 102 102 102
-0.500000 0.258065 0.316597 102 102 102
-0.483871 0.258065 0.300728 102 102 102
-0.467742 0.258065 0.285380 102 102 102
-0.451613 0.258065 0.270552 102 102 102
-0.435484 0.258065 0.256243 102 102 102
-0.419355 0.258065 0.242456 102 102 102
-0.403226 0.258065 0.229188 102 102 102
-0.387097 0.258065 0.216441 102 102 102
-0.370968 0.258065 0.204214 102 102 102
-0.354839 0.258065 0.192508 102 102 102
-0.338710 0.258065 0.181322 102 102 102
-0.322581 0.258065 0.170656 102 102 102
-0.306452 0.258065 0.160510 102 102 102
-0.290323 0.258065 0.150884 102 102 102
-0.274194 0.258065 0.141779 102 102 102
-0.258065 0.258065 0.133195 102 102 102
-0.241935 0.258065 0.125130 102 102 102
-0.225806 0.258065 0.117586 102 102 102
-0.209677 0.258065 0.110562 102 102 102
-0.193548 0.258065 0.104058 102 102 102
-0.177419 0.258065 0.098075 102 102 102
-0.161290 0.258065 0.092612 102 102 102
-0.145161 0.258065 0.087669 102 102 102
-0.129032 0.258065 0.083247 102 102 102
-0.112903 0.258065 0.079344 102 102 102
-0.096774 0.258065 0.075963 102 102 102
-0.080645 0.258065 0.073101 102 102 102
-0.064516 0.258065 0.070760 102 102 102
-0.048387 0.258065 0.068939 102 102 102
-0.032258 0.258065 0.067638 102 102 102
-0.016129 0.258065 0.066857 102 102 102
0.000000 0.258065 0.066597 102 102 102
0.016129 0.258065 0.066857 102 102 102
0.032258 0.258065 0.067638 102 102 102
0.048387 0.258065 0.068939 102 102 102
0.064516 0.258065 0.070760 102 102 102
0.080645 0.258065 0.073101 102 102 102
0.096774 0.258065 0.075963 102 102 102
0.112903 0.258065 0.079344 102 102 102
0.129032 0.258065 0.083247 102 102 102
0.145161 0.258065 0.087669 102 102 102
0.161290 0.258065 0.092612 102 102 102
0.177419 0.258065 0.098075 102 102 102
0.193548 0.258065 0.104058 102 102 102
0.209677 0.258065 0.110562 102 102 102
0.225806 0.258065 0.117586 102 102 102
0.241935 0.258065 0.125130 102 102 102
0.258065 0.258065 0.133195 102 102 102
0.274194 0.258065 0.141779 102 102 102
0.290323 0.258065 0.150884 102 102 102
0.306452 0.258065 0.160510 102 102 102
0.322581 0.258065 0.170656 102 102 102
0.338710 0.258065 0.181322 102 102 102
0.354839 0.258065 0.192508 102 102 102
0.370968 0.258065 0.204214 102 102 102
0.387097 0.258065 0.216441 102 102 102
0.403226 0.258065 0.229188 102 102 102
0.419355 0.258065 0.242456 102 102 102
0.435484 0.258065 0.256243 102 102 102
0.451613 0.258065 0.270552 102 102 102
0.467742 0.258065 0.285380 102 102 102
0.483871 0.258065 0.300728 102 102 102
0.500000 0.258065 0.316597 102 102 102
0.516129 0.258065 0.332986 102 102 102
0.532258 0.258065 0.349896 102 102 102
0.548387 0.258065 0.367326 102 102 102
0.564516 0.258065 0.385276 102 102 102
0.580645 0.258065 0.403746 102 102 102
0.596774 0.258065 0.422737 102 102 102
0.612903 0.258065 0.442248 102 102 102
0.629032 0.258065 0.462279 102 102 102
0.645161 0.258065 0.482830 102 102 102
0.661290 0.258065 0.503902 102 102 102
0.677419 0.258065 0.525494 102 102 102
0.693548 0.258065 0.547607 102 102 102
0.709677 0.258065 0.570239 102 102 102
0.725806 0.258065 0.593392 102 102 102
0.741935 0.258065 0.617066 102 102 102
0.758065 0.258065 0.641259 102 102 102
0.774194 0.258065 0.665973 102 102 102
0.790323 0.258065 0.691207 102 102 102
0.806452 0.258065 0.716962 102 102 102
0.822581 0.258065 0.743236 102 102 102
0.838710 0.258065 0.770031 102 102 102
0.854839 0.258065 0.797347 102 102 102
0.870968 0.258065 0.825182 102 102 102
0.887097 0.258065 0.853538 102 102 102
0.903226 0.258065 0.882414 102 102 102
0.919355 0.258065 0.911811 102 102 102
0.935484 0.258065 0.941727 102 102 102
0.951613 0.258065 0.972164 102 102 102
0.967742 0.258065 1.003122 102 102 102
0.983871 0.258065 1.034599 102 102 102
1.000000 0.258065 1.066597 102 102 102
-1.000000 0.274194 1.075182 102 102 102
-0.983871 0.274194 1.043184 102 102 102
-0.967742 0.274194 1.011707 102 102 102
-0.951613 0.274194 0.980749 102 102 102
-0.935484 0.274194 0.950312 102 102 102
-0.919355 0.274194 0.920395 102 102 102
-0.903226 0.274194 0.890999 102 102 102
-0.887097 0.274194 0.862123 102 102 102
-0.870968 0.274194 0.833767 102 102 102
-0.854839 0.274194 0.805931 102 102 102
-0.838710 0.274194 0.778616 102 102 102
-0.822581 0.274194 0.751821 102 102 102
-0.806452 0.274194 0.725546 102 102 102
-0.790323 0.274194 0.699792 102 102 102
-0.774194 0.274194 0.674558 102 102 102
-0.758065 0.274194 0.649844 102 102 102
-0.741935 0.274194 0.625650 102 102 102
-0.725806 0.274194 0.601977 102 102 102
-0.709677 0.274194 0.578824 102 102 102
-0.693548 0.274194 0.556191 102 102 102
-0.677419 0.274194 0.534079 102 102 102
-0.661290 0.274194 0.512487 102 102 102
-0.645161 0.274194 0.491415 102 102 102
-0.629032 0.274194 0.470864 102 102 102
-0.612903 0.274194 0.450832 102 102 102
-0.596774 0.274194 0.431322 102 102 102
-0.580645 0.274194 0.412331 102 102 102
-0.564516 0.274194 0.393861 102 102 102
-0.548387 0.274194 0.375911 102 102 102
-0.532258 0.274194 0.358481 102 102 102
-0.516129 0.274194 0.341571 102 102 102
-0.500000 0.274194 0.325182 102 102 102
-0.483871 0.274194 0.309313 102 102 102
-0.467742 0.274194 0.293965 102 102 102
-0.451613 0.274194 0.279136 102 102 102
-0.435484 0.274194 0.264828 102 102 102
-0.419355 0.274194 0.251041 102 102 102
-0.403226 0.274194 0.237773 102 102 102
-0.387097 0.274194 0.225026 102 102 102
-0.370968 0.274194 0.212799 102 102 102
-0.354839 0.274194 0.201093 102 102 102
-0.338710 0.274194 0.189906 102 102 102
-0.322581 0.274194 0.179240 102 102 102
-0.306452 0.274194 0.169095 102 102 102
-0.290323 0.274194 0.159469 102 102 102
-0.274194 0.274194 0.150364 102 102 102
-0.258065 0.274194 0.141779 102 102 102
-0.241935 0.274194 0.133715 102 102 102
-0.225806 0.274194 0.126171 102 102 102
-0.209677 0.274194 0.119147 102 102 102
-0.193548 0.274194 0.112643 102 102 102
-0.177419 0.274194 0.106660 102 102 102
-0.161290 0.274194 0.101197 102 102 102
-0.145161 0.274194 0.096254 102 102 102
-0.129032 0.274194 0.091831 102 102 102
-0.112903 0.274194 0.087929 102 102 102
-0.096774 0.274194 0.084547 102 102 102
-0.080645 0.274194 0.081686 102 102 102
-0.064516 0.274194 0.079344 102 102 102
-0.048387 0.274194 0.077523 102 102 102
-0.032258 0.274194 0.076223 102 102 102
-0.016129 0.274194 0.075442 102 102 102
0.000000 0.274194 0.075182 102 102 102
0.016129 0.274194 0.075442 102 102 102
0.032258 0.274194 0.076223 102 102 102
0.048387 0.274194 0.077523 102 102 102
0.064516 0.274194 0.079344 102 102 102
0.080645 0.274194 0.081686 102 102 102
0.096774 0.274194 0.084547 102 102 102
0.112903 0.274194 0.087929 102 102 102
0.129032 0.274194 0.091831 102 102 102
0.145161 0.274194 0.096254 102 102 102
0.161290 0.274194 0.101197 102 102 102
0.177419 0.274194 0.106660 102 102 102
0.193548 0.274194 0.112643 102 102 102
0.209677 0.274194 0.119147 102 102 102
0.225806 0.274194 0.126171 102 102 102
0.241935 0.274194 0.133715 102 102 102
0.258065 0.274194 0.141779 102 102 102
0.274194 0.274194 0.150364 102 102 102
0.290323 0.274194 0.159469 102 102 102
0.306452 0.274194 0.169095 102 102 102
0.322581 0.274194 0.179240 102 102 102
0.338710 0.274194 0.189906 102 102 102
0.354839 0.274194 0.201093 102 102 102
0.370968 0.274194 0.212799 102 102 102
0.387097 0.274194 0.225026 102 102 102
0.403226 0.274194 0.237773 102 102 102
0.419355 0.274194 0.251041 102 102 102
0.435484 0.274194 0.264828 102 102 102
0.451613 0.274194 0.279136 102 102 102
0.467742 0.274194 0.293965 102 102 102
0.483871 0.274194 0.309313 102 102 102
0.500000 0.274194 0.325182 102 102 102
0.516129 0.274194 0.341571 102 102 102
0.532258 0.274194 0.358481 102 102 102
0.548387 0.274194 0.375911 102 102 102
0.564516 0.274194 0.393861 102 102 102
0.580645 0.274194 0.412331 102 102 102
0.596774 0.274194 0.431322 102 102 102
0.612903 0.274194 0.450832 102 102 102
0.629032 0.274194 0.470864 102 102 102
0.645161 0.274194 0.491415 102 102 102
0.661290 0.274194 0.512487 102 102 102
0.677419 0.274194 0.534079 102 102 102
0.693548 0.274194 0.556191 102 102 102
0.709677 0.274194 0.578824 102 102 102
0.725806 0.274194 0.601977 102 102 102
0.741935 0.274194 0.625650 102 102 102
0.758065 0.274194 0.649844 102 102 102
0.774194 0.274194 0.674558 102 102 102
0.790323 0.274194 0.699792 102 102 102
0.806452 0.274194 0.725546 102 102 102
0.822581 0.274194 0.751821 102 102 102
0.838710 0.274194 0.778616 102 102 102
0.854839 0.274194 0.805931 102 102 102
0.870968 0.274194 0.833767 102 102 102
0.887097 0.274194 0.862123 102 102 102
0.903226 0.274194 0.890999 102 102 102
0.919355 0.274194 0.920395 102 102 102
0.935484 0.274194 0.950312 102 102 102
0.951613 0.274194 0.980749 102 102 102
0.967742 0.274194 1.011707 102 102 102
0.983871 0.274194 1.043184 102 102 102
1.000000 0.274194 1.075182 102 102 102
-1.000000 0.290323 1.084287 102 102 102
-0.983871 0.290323 1.052289 102 102 102
-0.967742 0.290323 1.020812 102 102 102
-0.951613 0.290323 0.989854 102 102 102
-0.935484 0.290323 0.959417 102 102 102
-0.919355 0.290323 0.929501 102 102 102
-0.903226 0.290323 0.900104 102 102 102
-0.887097 0.290323 0.871228 102 102 102
-0.870968 0.290323 0.842872 102 102 102
-0.854839 0.290323 0.815036 102 102 102
-0.838710 0.290323 0.787721 102 102 102
-0.822581 0.290323 0.760926 102 102 102
-0.806452 0.290323 0.734651 102 102 102
-0.790323 0.290323 0.708897 102 102 102
-0.774194 0.290323 0.683663 102 102 102
-0.758065 0.290323 0.658949 102 102 102
-0.741935 0.290323 0.634755 102 102 102
-0.725806 0.290323 0.611082 102 102 102
-0.709677 0.290323 0.587929 102 102 102
-0.693548 0.290323 0.565297 102 102 102
-0.677419 0.290323 0.543184 102 102 102
-0.661290 0.290323 0.521592 102 102 102
-0.645161 0.290323 0.500520 102 102 102
-0.629032 0.290323 0.479969 102 102 102
-0.612903 0.290323 0.459938 102 102 102
-0.596774 0.290323 0.440427 102 102 102
-0.580645 0.290323 0.421436 102 102 102
-0.564516 0.290323 0.402966 102 102 102
-0.548387 0.290323 0.385016 102 102 102
-0.532258 0.290323 0.367586 102 102 102
-0.516129 0.290323 0.350676 102 102 102
-0.500000 0.290323 0.334287 102 102 102
-0.483871 0.290323 0.318418 102 102 102
-0.467742 0.290323 0.303070 102 102 102
-0.451613 0.290323 0.288241 102 102 102
-0.435484 0.290323 0.273933 102 102 102
-0.419355 0.290323 0.260146 102 102 102
-0.403226 0.290323 0.246878 102 102 102
-0.387097 0.290323 0.234131 102 102 102
-0.370968 0.290323 0.221904 102 102 102
-0.354839 0.290323 0.210198 102 102 102
-0.338710 0.290323 0.199011 102 102 102
-0.322581 0.290323 0.188345 102 102 102
-0.306452 0.290323 0.178200 102 102 102
-0.290323 0.290323 0.168574 102 102 102
-0.274194 0.290323 0.159469 102 102 102
-0.258065 0.290323 0.150884 102 102 102
-0.241935 0.290323 0.142820 102 102 102
-0.225806 0.290323 0.135276 102 102 102
-0.209677 0.290323 0.128252 102 102 102
-0.193548 0.290323 0.121748 102 102 102
-0.177419 0.290323 0.115765 102 102 102
-0.161290 0.290323 0.110302 102 102 102
-0.145161 0.290323 0.105359 102 102 102
-0.129032 0.290323 0.100937 102 102 102
-0.112903 0.290323 0.097034 102 102 102
-0.096774 0.290323 0.093652 102 102 102
-0.080645 0.290323 0.090791 102 102 102
-0.064516 0.290323 0.088450 102 102 102
-0.048387 0.290323 0.086629 102 102 102
-0.032258 0.290323 0.085328 102 102 102
-0.016129 0.290323 0.084547 102 102 102
0.000000 0.290323 0.084287 102 102 102
0.016129 0.290323 0.084547 102 102 102
0.032258 0.290323 0.085328 102 102 102
0.048387 0.290323 0.086629 102 102 102
0.064516 0.290323 0.088450 102 102 102
0.080645 0.290323 0.090791 102 102 102
0.096774 0.290323 0.093652 102 102 102
0.112903 0.290323 0.097034 102 102 102
0.129032 0.290323 0.100937 102 102 102
0.145161 0.290323 0.105359 102 102 102
0.161290 0.290323 0.110302 102 102 102
0.177419 0.290323 0.115765 102 102 102
0.193548 0.290323 0.121748 102 102 102
0.209677 0.290323 0.128252 102 102 102
0.225806 0.290323 0.135276 102 102 102
0.241935 0.290323 0.142820 102 102 102
0.258065 0.290323 0.150884 102 102 102
0.274194 0.290323 0.159469 102 102 102
0.290323 0.290323 0.168574 102 102 102
0.306452 0.290323 0.178200 102 102 102
0.322581 0.290323 0.188345 102 102 102
0.338710 0.290323 0.199011 102 102 102
0.354839 0.290323 0.210198 102 102 102
0.370968 0.290323 0.221904 102 102 102
0.387097 0.290323 0.234131 102 102 102
0.403226 0.290323 0.246878 102 102 102
0.419355 0.290323 0.260146 102 102 102
0.435484 0.290323 0.273933 102 102 102
0.451613 0.290323 0.288241 102 102 102
0.467742 0.290323 0.303070 102 102 102
0.483871 0.290323 0.318418 102 102 102
0.500000 0.290323 0.334287 102 102 102
0.516129 0.290323 0.350676 102 102 102
0.532258 0.290323 0.367586 102 102 102
0.548387 0.290323 0.385016 102 102 102
0.564516 0.290323 0.402966 102 102 102
0.580645 0.290323 0.421436 102 102 102
0.596774 0.290323 0.440427 102 102 102
0.612903 0.290323 0.459938 102 102 102
0.629032 0.290323 0.479969 102 102 102
0.645161 0.290323 0.500520 102 102 102
0.661290 0.290323 0.521592 102 102 102
0.677419 0.290323 0.543184 102 102 102
0.693548 0.290323 0.565297 102 102 102
0.709677 0.290323 0.587929 102 102 102
0.725806 0.290323 0.611082 102 102 102
0.741935 0.290323 0.634755 102 102 102
0.758065 0.290323 0.658949 102 102 102
0.774194 0.290323 0.683663 102 102 102
0.790323 0.290323 0.708897 102 102 102
0.806452 0.290323 0.734651 102 102 102
0.822581 0.290323 0.760926 102 102 102
0.838710 0.290323 0.787721 102 102 102
0.854839 0.290323 0.815036 102 102 102
0.870968 0.290323 0.842872 102 102 102
0.887097 0.290323 0.871228 102 102 102
0.903226 0.290323 0.900104 102 102 102
0.919355 0.290323 0.929501 102 102 102
0.935484 0.290323 0.959417 102 102 102
0.951613 0.290323 0.989854 102 102 102
0.967742 0.290323 1.020812 102 102 102
0.983871 0.290323 1.052289 102 102 102
1.000000 0.290323 1.084287 102 102 102
-1.000000 0.306452 1.093913 102 102 102
-0.983871 0.306452 1.061915 102 102 102
-0.967742 0.306452 1.030437 102 102 102
-0.951613 0.306452 0.999480 102 102 102
-0.935484 0.306452 0.969043 102 102 102
-0.919355 0.306452 0.939126 102 102 102
-0.903226 0.306452 0.909729 102 102 102
-0.887097 0.306452 0.880853 102 102 102
-0.870968 0.306452 0.852497 102 102 102
-0.854839 0.306452 0.824662 102 102 102
-0.838710 0.306452 0.797347 102 102 102
-0.822581 0.306452 0.770552 102 102 102
-0.806452 0.306452 0.744277 102 102 102
-0.790323 0.306452 0.718522 102 102 102
-0.774194 0.306452 0.693288 102 102 102
-0.758065 0.306452 0.668574 102 102 102
-0.741935 0.306452 0.644381 102 102 102
-0.725806 0.306452 0.620708 102 102 102
-0.709677 0.306452 0.597555 102 102 102
-0.693548 0.306452 0.574922 102 102 102
-0.677419 0.306452 0.552810 102 102 102
-0.661290 0.306452 0.531217 102 102 102
-0.645161 0.306452 0.510146 102 102 102
-0.629032 0.306452 0.489594 102 102 102
-0.612903 0.306452 0.469563 102 102 102
-0.596774 0.306452 0.450052 102 102 102
-0.580645 0.306452 0.431061 102 102 102
-0.564516 0.306452 0.412591 102 102 102
-0.548387 0.306452 0.394641 102 102 102
-0.532258 0.306452 0.377211 102 102 102
-0.516129 0.306452 0.360302 102 102 102
-0.500000 0.306452 0.343913 102 102 102
-0.483871 0.306452 0.328044 102 102 102
-0.467742 0.306452 0.312695 102 102 102
-0.451613 0.306452 0.297867 102 102 102
-0.435484 0.306452 0.283559 102 102 102
-0.419355 0.306452 0.269771 102 102 102
-0.403226 0.306452 0.256504 102 102 102
-0.387097 0.306452 0.243757 102 102 102
-0.370968 0.306452 0.231530 102 102 102
-0.354839 0.306452 0.219823 102 102 102
-0.338710 0.306452 0.208637 102 102 102
-0.322581 0.306452 0.197971 102 102 102
-0.306452 0.306452 0.187825 102 102 102
-0.290323 0.306452 0.178200 102 102 102
-0.274194 0.306452 0.169095 102 102 102
-0.258065 0.306452 0.160510 102 102 102
-0.241935 0.306452 0.152445 102 102 102
-0.225806 0.306452 0.144901 102 102 102
-0.209677 0.306452 0.137877 102 102 102
-0.193548 0.306452 0.131374 102 102 102
-0.177419 0.306452 0.125390 102 102 102
-0.161290 0.306452 0.119927 102 102 102
-0.145161 0.306452 0.114984 102 102 102
-0.129032 0.306452 0.110562 102 102 102
-0.112903 0.306452 0.106660 102 102 102
-0.096774 0.306452 0.103278 102 102 102
-0.080645 0.306452 0.100416 102 102 102
-0.064516 0.306452 0.098075 102 102 102
-0.048387 0.306452 0.096254 102 102 102
-0.032258 0.306452 0.094953 102 102 102
-0.016129 0.306452 0.094173 102 102 102
0.000000 0.306452 0.093913 102 102 102
0.016129 0.306452 0.094173 102 102 102
0.032258 0.306452 0.094953 102 102 102
0.048387 0.306452 0.096254 102 102 102
0.064516 0.306452 0.098075 102 102 102
0.080645 0.306452 0.100416 102 102 102
0.096774 0.306452 0.103278 102 102 102
0.112903 0.306452 0.106660 102 102 102
0.129032 0.306452 0.110562 102 102 102
0.145161 0.306452 0.114984 102 102 102
0.161290 0.306452 0.119927 102 102 102
0.177419 0.306452 0.125390 102 102 102
0.193548 0.306452 0.131374 102 102 102
0.209677 0.306452 0.137877 102 102 102
0.225806 0.306452 0.144901 102 102 102
0.241935 0.306452 0.152445 102 102 102
0.258065 0.306452 0.160510 102 102 102
0.274194 0.306452 0.169095 102 102 102
0.290323 0.306452 0.178200 102 102 102
0.306452 0.306452 0.187825 102 102 102
0.322581 0.306452 0.197971 102 102 102
0.338710 0.306452 0.208637 102 102 102
0.354839 0.306452 0.219823 102 102 102
0.370968 0.306452 0.231530 102 102 102
0.387097 0.306452 0.243757 102 102 102
0.403226 0.306452 0.256504 102 102 102
0.419355 0.306452 0.269771 102 102 102
0.435484 0.306452 0.283559 102 102 102
0.451613 0.306452 0.297867 102 102 102
0.467742 0.306452 0.312695 102 102 102
0.483871 0.306452 0.328044 102 102 102
0.500000 0.306452 0.343913 102 102 102
0.516129 0.306452 0.360302 102 102 102
0.532258 0.306452 0.377211 102 102 102
0.548387 0.306452 0.394641 102 102 102
0.564516 0.306452 0.412591 102 102 102
0.580645 0.306452 0.431061 102 102 102
0.596774 0.306452 0.450052 102 102 102
0.612903 0.306452 0.469563 102 102 102
0.629032 0.306452 0.489594 102 102 102
0.645161 0.306452 0.510146 102 102 102
0.661290 0.306452 0.531217 102 102 102
0.677419 0.306452 0.552810 102 102 102
0.693548 0.306452 0.574922 102 102 102
0.709677 0.306452 0.597555 102 102 102
0.725806 0.306452 0.620708 102 102 102
0.741935 0.306452 0.644381 102 102 102
0.758065 0.306452 0.668574 102 102 102
0.774194 0.306452 0.693288 102 102 102
0.790323 0.306452 0.718522 102 102 102
0.806452 0.306452 0.744277 102 102 102
0.822581 0.306452 0.770552 102 102 102
0.838710 0.306452 0.797347 102 102 102
0.854839 0.306452 0.824662 102 102 102
0.870968 0.306452 0.852497 102 102 102
0.887097 0.306452 0.880853 102 102 102
0.903226 0.306452 0.909729 102 102 102
0.919355 0.306452 0.939126 102 102 102
0.935484 0.306452 0.969043 102 102 102
0.951613 0.306452 0.999480 102 102 102
0.967742 0.306452 1.030437 102 102 102
0.983871 0.306452 1.061915 102 102 102
1.000000 0.306452 1.093913 102 102 102
-1.000000 0.322581 1.104058 102 102 102
-0.983871 0.322581 1.072060 102 102 102
-0.967742 0.322581 1.040583 102 102 102
-0.951613 0.322581 1.009625 102 102 102
-0.935484 0.322581 0.979188 102 102 102
-0.919355 0.322581 0.949272 102 102 102
-0.903226 0.322581 0.919875 102 102 102
-0.887097 0.322581 0.890999 102 102 102
-0.870968 0.322581 0.862643 102 102 102
-0.854839 0.322581 0.834808 102 102 102
-0.838710 0.322581 0.807492 102 102 102
-0.822581 0.322581 0.780697 102 102 102
-0.806452 0.322581 0.754422 102 102 102
-0.790323 0.322581 0.728668 102 102 102
-0.774194 0.322581 0.703434 102 102 102
-0.758065 0.322581 0.678720 102 102 102
-0.741935 0.322581 0.654527 102 102 102
-0.725806 0.322581 0.630853 102 102 102
-0.709677 0.322581 0.607700 102 102 102
-0.693548 0.322581 0.585068 102 102 102
-0.677419 0.322581 0.562955 102 102 102
-0.661290 0.322581 0.541363 102 102 102
-0.645161 0.322581 0.520291 102 102 102
-0.629032 0.322581 0.499740 102 102 102
-0.612903 0.322581 0.479709 102 102 102
-0.596774 0.322581 0.460198 102 102 102
-0.580645 0.322581 0.441207 102 102 102
-0.564516 0.322581 0.422737 102 102 102
-0.548387 0.322581 0.404787 102 102 102
-0.532258 0.322581 0.387357 102 102 102
-0.516129 0.322581 0.370447 102 102 102
-0.500000 0.322581 0.354058 102 102 102
-0.483871 0.322581 0.338189 102 102 102
-0.467742 0.322581 0.322841 102 102 102
-0.451613 0.322581 0.308012 102 102 102
-0.435484 0.322581 0.293704 102 102 102
-0.419355 0.322581 0.279917 102 102 102
-0.403226 0.322581 0.266649 102 102 102
-0.387097 0.322581 0.253902 102 102 102
-0.370968 0.322581 0.241675 102 102 102
-0.354839 0.322581 0.229969 102 102 102
-0.338710 0.322581 0.218783 102 102 102
-0.322581 0.322581 0.208117 102 102 102
-0.306452 0.322581 0.197971 102 102 102
-0.290323 0.322581 0.188345 102 102 102
-0.274194 0.322581 0.179240 102 102 102
-0.258065 0.322581 0.170656 102 102 102
-0.241935 0.322581 0.162591 102 102 102
-0.225806 0.322581 0.155047 102 102 102
-0.209677 0.322581 0.148023 102 102 102
-0.193548 0.322581 0.141519 102 102 102
-0.177419 0.322581 0.135536 102 102 102
-0.161290 0.322581 0.130073 102 102 102
-0.145161 0.322581 0.125130 102 102 102
-0.129032 0.322581 0.120708 102 102 102
-0.112903 0.322581 0.116805 102 102 102
-0.096774 0.322581 0.113424 102 102 102
-0.080645 0.322581 0.110562 102 102 102
-0.064516 0.322581 0.108221 102 102 102
-0.048387 0.322581 0.106400 102 102 102
-0.032258 0.322581 0.105099 102 102 102
-0.016129 0.322581 0.104318 102 102 102
0.000000 0.322581 0.104058 102 102 102
0.016129 0.322581 0.104318 102 102 102
0.032258 0.322581 0.105099 102 102 102
0.048387 0.322581 0.106400 102 102 102
0.064516 0.322581 0.108221 102 102 102
0.080645 0.322581 0.110562 102 102 102
0.096774 0.322581 0.113424 102 102 102
0.112903 0.322581 0.116805 102 102 102
0.129032 0.322581 0.120708 102 102 102
0.145161 0.322581 0.125130 102 102 102
0.161290 0.322581 0.130073 102 102 102
0.177419 0.322581 0.135536 102 102 102
0.193548 0.322581 0.141519 102 102 102
0.209677 0.322581 0.148023 102 102 102
0.225806 0.322581 0.155047 102 102 102
0.241935 0.322581 0.162591 102 102 102
0.258065 0.322581 0.170656 102 102 102
0.274194 0.322581 0.179240 102 102 102
0.290323 0.322581 0.188345 102 102 102
0.306452 0.322581 0.197971 102 102 102
0.322581 0.322581 0.208117 102 102 102
0.338710 0.322581 0.218783 102 102 102
0.354839 0.322581 0.229969 102 102 102
0.370968 0.322581 0.241675 102 102 102
0.387097 0.322581 0.253902 102 102 102
0.403226 0.322581 0.266649 102 102 102
0.419355 0.322581 0.279917 102 102 102
0.435484 0.322581 0.293704 102 102 102
0.451613 0.322581 0.308012 102 102 102
0.467742 0.322581 0.322841 102 102 102
0.483871 0.322581 0.338189 102 102 102
0.500000 0.322581 0.354058 102 102 102
0.516129 0.322581 0.370447 102 102 102
0.532258 0.322581 0.387357 102 102 102
0.548387 0.322581 0.404787 102 102 102
0.564516 0.322581 0.422737 102 102 102
0.580645 0.322581 0.441207 102 102 102
0.596774 0.322581 0.460198 102 102 102
0.612903 0.322581 0.479709 102 102 102
0.629032 0.322581 0.499740 102 102 102
0.645161 0.322581 0.520291 102 102 102
0.661290 0.322581 0.541363 102 102 102
0.677419 0.322581 0.562955 102 102 102
0.693548 0.322581 0.585068 102 102 102
0.709677 0.322581 0.607700 102 102 102
0.725806 0.322581 0.630853 102 102 102
0.741935 0.322581 0.654527 102 102 102
0.758065 0.322581 0.678720 102 102 102
0.774194 0.322581 0.703434 102 102 102
0.790323 0.322581 0.728668 102 102 102
0.806452 0.322581 0.754422 102 102 102
0.822581 0.322581 0.780697 102 102 102
0.838710 0.322581 0.807492 102 102 102
0.854839 0.322581 0.834808 102 102 102
0.870968 0.322581 0.862643 102 102 102
0.887097 0.322581 0.890999 102 102 102
0.903226 0.322581 0.919875 102 102 102
0.919355 0.322581 0.949272 102 102 102
0.935484 0.322581 0.979188 102 102 102
0.951613 0.322581 1.009625 102 102 102
0.967742 0.322581 1.040583 102 102 102
0.983871 0.322581 1.072060 102 102 102
1.000000 0.322581 1.104058 102 102 102
-1.000000 0.338710 1.114724 102 102 102
-0.983871 0.338710 1.082726 102 102 102
-0.967742 0.338710 1.051249 102 102 102
-0.951613 0.338710 1.020291 102 102 102
-0.935484 0.338710 0.989854 102 102 102
-0.919355 0.338710 0.959938 102 102 102
-0.903226 0.338710 0.930541 102 102 102
-0.887097 0.338710 0.901665 102 102 102
-0.870968 0.338710 0.873309 102 102 102
-0.854839 0.338710 0.845473 102 102 102
-0.838710 0.338710 0.818158 102 102 102
-0.822581 0.338710 0.791363 102 102 102
-0.806452 0.338710 0.765088 102 102 102
-0.790323 0.338710 0.739334 102 102 102
-0.774194 0.338710 0.714100 102 102 102
-0.758065 0.338710 0.689386 102 102 102
-0.741935 0.338710 0.665192 102 102 102
-0.725806 0.338710 0.641519 102 102 102
-0.709677 0.338710 0.618366 102 102 102
-0.693548 0.338710 0.595734 102 102 102
-0.677419 0.338710 0.573621 102 102 102
-0.661290 0.338710 0.552029 102 102 102
-0.645161 0.338710 0.530957 102 102 102
-0.629032 0.338710 0.510406 102 102 102
-0.612903 0.338710 0.490375 102 102 102
-0.596774 0.338710 0.470864 102 102 102
-0.580645 0.338710 0.451873 102 102 102
-0.564516 0.338710 0.433403 102 102 102
-0.548387 0.338710 0.415453 102 102 102
-0.532258 0.338710 0.398023 102 102 102
-0.516129 0.338710 0.381113 102 102 102
-0.500000 0.338710 0.364724 102 102 102
-0.483871 0.338710 0.348855 102 102 102
-0.467742 0.338710 0.333507 102 102 102
-0.451613 0.338710 0.318678 102 102 102
-0.435484 0.338710 0.304370 102 102 102
-0.419355 0.338710 0.290583 102 102 102
-0.403226 0.338710 0.277315 102 102 102
-0.387097 0.338710 0.264568 102 102 102
-0.370968 0.338710 0.252341 102 102 102
-0.354839 0.338710 0.240635 102 102 102
-0.338710 0.338710 0.229448 102 102 102
-0.322581 0.338710 0.218783 102 102 102
-0.306452 0.338710 0.208637 102 102 102
-0.290323 0.338710 0.199011 102 102 102
-0.274194 0.338710 0.189906 102 102 102
-0.258065 0.338710 0.181322 102 102 102
-0.241935 0.338710 0.173257 102 102 102
-0.225806 0.338710 0.165713 102 102 102
-0.209677 0.338710 0.158689 102 102 102
-0.193548 0.338710 0.152185 102 102 102
-0.177419 0.338710 0.146202 102 102 102
-0.161290 0.338710 0.140739 102 102 102
-0.145161 0.338710 0.135796 102 102 102
-0.129032 0.338710 0.131374 102 102 102
-0.112903 0.338710 0.127471 102 102 102
-0.096774 0.338710 0.124089 102 102 102
-0.080645 0.338710 0.121228 102 102 102
-0.064516 0.338710 0.118887 102 102 102
-0.048387 0.338710 0.117066 102 102 102
-0.032258 0.338710 0.115765 102 102 102
-0.016129 0.338710 0.114984 102 102 102
0.000000 0.338710 0.114724 102 102 102
0.016129 0.338710 0.114984 102 102 102
0.032258 0.338710 0.115765 102 102 102
0.048387 0.338710 0.117066 102 102 102
0.064516 0.338710 0.118887 102 102 102
0.080645 0.338710 0.121228 102 102 102
0.096774 0.338710 0.124089 102 102 102
0.112903 0.338710 0.127471 102 102 102
0.129032 0.338710 0.131374 102 102 102
0.145161 0.338710 0.135796 102 102 102
0.161290 0.338710 0.140739 102 102 102
0.177419 0.338710 0.146202 102 102 102
0.193548 0.338710 0.152185 102 102 102
0.209677 0.338710 0.158689 102 102 102
0.225806 0.338710 0.165713 102 102 102
0.241935 0.338710 0.173257 102 102 102
0.258065 0.338710 0.181322 102 102 102
0.274194 0.338710 0.189906 102 102 102
0.290323 0.338710 0.199011 102 102 102
0.306452 0.338710 0.208637 102 102 102
0.322581 0.338710 0.218783 102 102 102
0.338710 0.338710 0.229448 102 102 102
0.354839 0.338710 0.240635 102 102 102
0.370968 0.338710 0.252341 102 102 102
0.387097 0.338710 0.264568 102 102 102
0.403226 0.338710 0.277315 102 102 102
0.419355 0.338710 0.290583 102 102 102
0.435484 0.338710 0.304370 102 102 102
0.451613 0.338710 0.318678 102 102 102
0.467742 0.338710 0.333507 102 102 102
0.483871 0.338710 0.348855 102 102 102
0.500000 0.338710 0.364724 102 102 102
0.516129 0.338710 0.381113 102 102 102
0.532258 0.338710 0.398023 102 102 102
0.548387 0.338710 0.415453 102 102 102
0.564516 0.338710 0.433403 102 102 102
0.580645 0.338710 0.451873 102 102 102
0.596774 0.338710 0.470864 102 102 102
0.612903 0.338710 0.490375 102 102 102
0.629032 0.338710 0.510406 102 102 102
0.645161 0.338710 0.530957 102 102 102
0.661290 0.338710 0.552029 102 102 102
0.677419 0.338710 0.573621 102 102 102
0.693548 0.338710 0.595734 102 102 102
0.709677 0.338710 0.618366 102 102 102
0.725806 0.338710 0.641519 102 102 102
0.741935 0.338710 0.665192 102 102 102
0.758065 0.338710 0.689386 102 102 102
0.774194 0.338710 0.714100 102 102 102
0.790323 0.338710 0.739334 102 102 102
0.806452 0.338710 0.765088 102 102 102
0.822581 0.338710 0.791363 102 102 102
0.838710 0.338710 0.818158 102 102 102
0.854839 0.338710 0.845473 102 102 102
0.870968 0.338710 0.873309 102 102 102
0.887097 0.338710 0.901665 102 102 102
0.903226 0.338710 0.930541 102 102 102
0.919355 0.338710 0.959938 102 102 102
0.935484 0.338710 0.989854 102 102 102
0.951613 0.338710 1.020291 102 102 102
0.967742 0.338710 1.051249 102 102 102
0.983871 0.338710 1.082726 102 102 102
1.000000 0.338710 1.114724 102 102 102
-1.000000 0.354839 1.125911 102 102 102
-0.983871 0.354839 1.093913 102 102 102
-0.967742 0.354839 1.062435 102 102 102
-0.951613 0.354839 1.031478 102 102 102
-0.935484 0.354839 1.001041 102 102 102
-0.919355 0.354839 0.971124 102 102 102
-0.903226 0.354839 0.941727 102 102 102
-0.887097 0.354839 0.912851 102 102 102
-0.870968 0.354839 0.884495 102 102 102
-0.854839 0.354839 0.856660 102 102 102
-0.838710 0.354839 0.829344 102 102 102
-0.822581 0.354839 0.802549 102 102 102
-0.806452 0.354839 0.776275 102 102 102
-0.790323 0.354839 0.750520 102 102 102
-0.774194 0.354839 0.725286 102 102 102
-0.758065 0.354839 0.700572 102 102 102
-0.741935 0.354839 0.676379 102 102 102
-0.725806 0.354839 0.652705 102 102 102
-0.709677 0.354839 0.629553 102 102 102
-0.693548 0.354839 0.606920 102 102 102
-0.677419 0.354839 0.584808 102 102 102
-0.661290 0.354839 0.563215 102 102 102
-0.645161 0.354839 0.542144 102 102 102
-0.629032 0.354839 0.521592 102 102 102
-0.612903 0.354839 0.501561 102 102 102
-0.596774 0.354839 0.482050 102 102 102
-0.580645 0.354839 0.463059 102 102 102
-0.564516 0.354839 0.444589 102 102 102
-0.548387 0.354839 0.426639 102 102 102
-0.532258 0.354839 0.409209 102 102 102
-0.516129 0.354839 0.392300 102 102 102
-0.500000 0.354839 0.375911 102 102 102
-0.483871 0.354839 0.360042 102 102 102
-0.467742 0.354839 0.344693 102 102 102
-0.451613 0.354839 0.329865 102 102 102
-0.435484 0.354839 0.315557 102 102 102
-0.419355 0.354839 0.301769 102 102 102
-0.403226 0.354839 0.288502 102 102 102
-0.387097 0.354839 0.275754 102 102 102
-0.370968 0.354839 0.263528 102 102 102
-0.354839 0.354839 0.251821 102 102 102
-0.338710 0.354839 0.240635 102 102 102
-0.322581 0.354839 0.229969 102 102 102
-0.306452 0.354839 0.219823 102 102 102
-0.290323 0.354839 0.210198 102 102 102
-0.274194 0.354839 0.201093 102 102 102
-0.258065 0.354839 0.192508 102 102 102
-0.241935 0.354839 0.184443 102 102 102
-0.225806 0.354839 0.176899 102 102 102
-0.209677 0.354839 0.169875 102 102 102
-0.193548 0.354839 0.163371 102 102 102
-0.177419 0.354839 0.157388 102 102 102
-0.161290 0.354839 0.151925 102 102 102
-0.145161 0.354839 0.146982 102 102 102
-0.129032 0.354839 0.142560 102 102 102
-0.112903 0.354839 0.138658 102 102 102
-0.096774 0.354839 0.135276 102 102 102
-0.080645 0.354839 0.132414 102 102 102
-0.064516 0.354839 0.130073 102 102 102
-0.048387 0.354839 0.128252 102 102 102
-0.032258 0.354839 0.126951 102 102 102
-0.016129 0.354839 0.126171 102 102 102
0.000000 0.354839 0.125911 102 102 102
0.016129 0.354839 0.126171 102 102 102
0.032258 0.354839 0.126951 102 102 102
0.048387 0.354839 0.128252 102 102 102
0.064516 0.354839 0.130073 102 102 102
0.080645 0.354839 0.132414 102 102 102
0.096774 0.354839 0.135276 102 102 102
0.112903 0.354839 0.138658 102 102 102
0.129032 0.354839 0.142560 102 102 102
0.145161 0.354839 0.146982 102 102 102
0.161290 0.354839 0.151925 102 102 102
0.177419 0.354839 0.157388 102 102 102
0.193548 0.354839 0.163371 102 102 102
0.209677 0.354839 0.169875 102 102 102
0.225806 0.354839 0.176899 102 102 102
0.241935 0.354839 0.184443 102 102 102
0.258065 0.354839 0.192508 102 102 102
0.274194 0.354839 0.201093 102 102 102
0.290323 0.354839 0.210198 102 102 102
0.306452 0.354839 0.219823 102 102 102
0.322581 0.354839 0.229969 102 102 102
0.338710 0.354839 0.240635 102 102 102
0.354839 0.354839 0.251821 102 102 102
0.370968 0.354839 0.263528 102 102 102
0.387097 0.354839 0.275754 102 102 102
0.403226 0.354839 0.288502 102 102 102
0.419355 0.354839 0.301769 102 102 102
0.435484 0.354839 0.315557 102 102 102
0.451613 0.354839 0.329865 102 102 102
0.467742 0.354839 0.344693 102 102 102
0.483871 0.354839 0.360042 102 102 102
0.500000 0.354839 0.375911 102 102 102
0.516129 0.354839 0.392300 102 102 102
0.532258 0.354839 0.409209 102 102 102
0.548387 0.354839 0.426639 102 102 102
0.564516 0.354839 0.444589 102 102 102
0.580645 0.354839 0.463059 102 102 102
0.596774 0.354839 0.482050 102 102 102
0.612903 0.354839 0.501561 102 102 102
0.629032 0.354839 0.521592 102 102 102
0.645161 0.354839 0.542144 102 102 102
0.661290 0.354839 0.563215 102 102 102
0.677419 0.354839 0.584808 102 102 102
0.693548 0.354839 0.606920 102 102 102
0.709677 0.354839 0.629553 102 102 102
0.725806 0.354839 0.652705 102 102 102
0.741935 0.354839 0.676379 102 102 102
0.758065 0.354839 0.700572 102 102 102
0.774194 0.354839 0.725286 102 102 102
0.790323 0.354839 0.750520 102 102 102
0.806452 0.354839 0.776275 102 102 102
0.822581 0.354839 0.802549 102 102 102
0.838710 0.354839 0.829344 102 102 102
0.854839 0.354839 0.856660 102 102 102
0.870968 0.354839 0.884495 102 102 102
0.887097 0.354839 0.912851 102 102 102
0.903226 0.354839 0.941727 102 102 102
0.919355 0.354839 0.971124 102 102 102
0.935484 0.354839 1.001041 102 102 102
0.951613 0.354839 1.031478 102 102 102
0.967742 0.354839 1.062435 102 102 102
0.983871 0.354839 1.093913 102 102 102
1.000000 0.354839 1.125911 102 102 102
-1.000000 0.370968 1.137617 102 102 102
-0.983871 0.370968 1.105619 102 102 102
-0.967742 0.370968 1.074142 102 102 102
-0.951613 0.370968 1.043184 102 102 102
-0.935484 0.370968 1.012747 102 102 102
-0.919355 0.370968 0.982830 102 102 102
-0.903226 0.370968 0.953434 102 102 102
-0.887097 0.370968 0.924558 102 102 102
-0.870968 0.370968 0.896202 102 102 102
-0.854839 0.370968 0.868366 102 102 102
-0.838710 0.370968 0.841051 102 102 102
-0.822581 0.370968 0.814256 102 102 102
-0.806452 0.370968 0.787981 102 102 102
-0.790323 0.370968 0.762227 102 102 102
-0.774194 0.370968 0.736993 102 102 102
-0.758065 0.370968 0.712279 102 102 102
-0.741935 0.370968 0.688085 102 102 102
-0.725806 0.370968 0.664412 102 102 102
-0.709677 0.370968 0.641259 102 102 102
-0.693548 0.370968 0.618626 102 102 102
-0.677419 0.370968 0.596514 102 102 102
-0.661290 0.370968 0.574922 102 102 102
-0.645161 0.370968 0.553850 102 102 102
-0.629032 0.370968 0.533299 102 102 102
-0.612903 0.370968 0.513267 102 102 102
-0.596774 0.370968 0.493757 102 102 102
-0.580645 0.370968 0.474766 102 102 102
-0.564516 0.370968 0.456296 102 102 102
-0.548387 0.370968 0.438345 102 102 102
-0.532258 0.370968 0.420916 102 102 102
-0.516129 0.370968 0.404006 102 102 102
-0.500000 0.370968 0.387617 102 102 102
-0.483871 0.370968 0.371748 102 102 102
-0.467742 0.370968 0.356400 102 102 102
-0.451613 0.370968 0.341571 102 102 102
-0.435484 0.370968 0.327263 102 102 102
-0.419355 0.370968 0.313476 102 102 102
-0.403226 0.370968 0.300208 102 102 102
-0.387097 0.370968 0.287461 102 102 102
-0.370968 0.370968 0.275234 102 102 102
-0.354839 0.370968 0.263528 102 102 102
-0.338710 0.370968 0.252341 102 102 102
-0.322581 0.370968 0.241675 102 102 102
-0.306452 0.370968 0.231530 102 102 102
-0.290323 0.370968 0.221904 102 102 102
-0.274194 0.370968 0.212799 102 102 102
-0.258065 0.370968 0.204214 102 102 102
-0.241935 0.370968 0.196150 102 102 102
-0.225806 0.370968 0.188606 102 102 102
-0.209677 0.370968 0.181582 102 102 102
-0.193548 0.370968 0.175078 102 102 102
-0.177419 0.370968 0.169095 102 102 102
-0.161290 0.370968 0.163632 102 102 102
-0.145161 0.370968 0.158689 102 102 102
-0.129032 0.370968 0.154266 102 102 102
-0.112903 0.370968 0.150364 102 102 102
-0.096774 0.370968 0.146982 102 102 102
-0.080645 0.370968 0.144121 102 102 102
-0.064516 0.370968 0.141779 102 102 102
-0.048387 0.370968 0.139958 102 102 102
-0.032258 0.370968 0.138658 102 102 102
-0.016129 0.370968 0.137877 102 102 102
0.000000 0.370968 0.137617 102 102 102
0.016129 0.370968 0.137877 102 102 102
0.032258 0.370968 0.138658 102 102 102
0.048387 0.370968 0.139958 102 102 102
0.064516 0.370968 0.141779 102 102 102
0.080645 0.370968 0.144121 102 102 102
0.096774 0.370968 0.146982 102 102 102
0.112903 0.370968 0.150364 102 102 102
0.129032 0.370968 0.154266 102 102 102
0.145161 0.370968 0.158689 102 102 102
0.161290 0.370968 0.163632 102 102 102
0.177419 0.370968 0.169095 102 102 102
0.193548 0.370968 0.175078 102 102 102
0.209677 0.370968 0.181582 102 102 102
0.225806 0.370968 0.188606 102 102 102
0.241935 0.370968 0.196150 102 102 102
0.258065 0.370968 0.204214 102 102 102
0.274194 0.370968 0.212799 102 102 102
0.290323 0.370968 0.221904 102 102 102
0.306452 0.370968 0.231530 102 102 102
0.322581 0.370968 0.241675 102 102 102
0.338710 0.370968 0.252341 102 102 102
0.354839 0.370968 0.263528 102 102 102
0.370968 0.370968 0.275234 102 102 102
0.387097 0.370968 0.287461 102 102 102
0.403226 0.370968 0.300208 102 102 102
0.419355 0.370968 0.313476 102 102 102
0.435484 0.370968 0.327263 102 102 102
0.451613 0.370968 0.341571 102 102 102
0.467742 0.370968 0.356400 102 102 102
0.483871 0.370968 0.371748 102 102 102
0.500000 0.370968 0.387617 102 102 102
0.516129 0.370968 0.404006 102 102 102
0.532258 0.370968 0.420916 102 102 102
0.548387 0.370968 0.438345 102 102 102
0.564516 0.370968 0.456296 102 102 102
0.580645 0.370968 0.474766 102 102 102
0.596774 0.370968 0.493757 102 102 102
0.612903 0.370968 0.513267 102 102 102
0.629032 0.370968 0.533299 102 102 102
0.645161 0.370968 0.553850 102 102 102
0.661290 0.370968 0.574922 102 102 102
0.677419 0.370968 0.596514 102 102 102
0.693548 0.370968 0.618626 102 102 102
0.709677 0.370968 0.641259 102 102 102
0.725806 0.370968 0.664412 102 102 102
0.741935 0.370968 0.688085 102 102 102
0.758065 0.370968 0.712279 102 102 102
0.774194 0.370968 0.736993 102 102 102
0.790323 0.370968 0.762227 102 102 102
0.806452 0.370968 0.787981 102 102 102
0.822581 0.370968 0.814256 102 102 102
0.838710 0.370968 0.841051 102 102 102
0.854839 0.370968 0.868366 102 102 102
0.870968 0.370968 0.896202 102 102 102
0.887097 0.370968 0.924558 102 102 102
0.903226 0.370968 0.953434 102 102 102
0.919355 0.370968 0.982830 102 102 102
0.935484 0.370968 1.012747 102 102 102
0.951613 0.370968 1.043184 102 102 102
0.967742 0.370968 1.074142 102 102 102
0.983871 0.370968 1.105619 102 102 102
1.000000 0.370968 1.137617 102 102 102
-1.000000 0.387097 1.149844 102 102 102
-0.983871 0.387097 1.117846 102 102 102
-0.967742 0.387097 1.086368 102 102 102
-0.951613 0.387097 1.055411 102 102 102
-0.935484 0.387097 1.024974 102 102 102
-0.919355 0.387097 0.995057 102 102 102
-0.903226 0.387097 0.965661 102 102 102
-0.887097 0.387097 0.936785 102 102 102
-0.870968 0.387097 0.908429 102 102 102
-0.854839 0.387097 0.880593 102 102 102
-0.838710 0.387097 0.853278 102 102 102
-0.822581 0.387097 0.826483 102 102 102
-0.806452 0.387097 0.800208 102 102 102
-0.790323 0.387097 0.774454 102 102 102
-0.774194 0.387097 0.749220 102 102 102
-0.758065 0.387097 0.724506 102 102 102
-0.741935 0.387097 0.700312 102 102 102
-0.725806 0.387097 0.676639 102 102 102
-0.709677 0.387097 0.653486 102 102 102
-0.693548 0.387097 0.630853 102 102 102
-0.677419 0.387097 0.608741 102 102 102
-0.661290 0.387097 0.587149 102 102 102
-0.645161 0.387097 0.566077 102 102 102
-0.629032 0.387097 0.545525 102 102 102
-0.612903 0.387097 0.525494 102 102 102
-0.596774 0.387097 0.505983 102 102 102
-0.580645 0.387097 0.486993 102 102 102
-0.564516 0.387097 0.468522 102 102 102
-0.548387 0.387097 0.450572 102 102 102
-0.532258 0.387097 0.433143 102 102 102
-0.516129 0.387097 0.416233 102 102 102
-0.500000 0.387097 0.399844 102 102 102
-0.483871 0.387097 0.383975 102 102 102
-0.467742 0.387097 0.368626 102 102 102
-0.451613 0.387097 0.353798 102 102 102
-0.435484 0.387097 0.339490 102 102 102
-0.419355 0.387097 0.325702 102 102 102
-0.403226 0.387097 0.312435 102 102 102
-0.387097 0.387097 0.299688 102 102 102
-0.370968 0.387097 0.287461 102 102 102
-0.354839 0.387097 0.275754 102 102 102
-0.338710 0.387097 0.264568 102 102 102
-0.322581 0.387097 0.253902 102 102 102
-0.306452 0.387097 0.243757 102 102 102
-0.290323 0.387097 0.234131 102 102 102
-0.274194 0.387097 0.225026 102 102 102
-0.258065 0.387097 0.216441 102 102 102
-0.241935 0.387097 0.208377 102 102 102
-0.225806 0.387097 0.200832 102 102 102
-0.209677 0.387097 0.193809 102 102 102
-0.193548 0.387097 0.187305 102 102 102
-0.177419 0.387097 0.181322 102 102 102
-0.161290 0.387097 0.175858 102 102 102
-0.145161 0.387097 0.170916 102 102 102
-0.129032 0.387097 0.166493 102 102 102
-0.112903 0.387097 0.162591 102 102 102
-0.096774 0.387097 0.159209 102 102 102
-0.080645 0.387097 0.156348 102 102 102
-0.064516 0.387097 0.154006 102 102 102
-0.048387 0.387097 0.152185 102 102 102
-0.032258 0.387097 0.150884 102 102 102
-0.016129 0.387097 0.150104 102 102 102
0.000000 0.387097 0.149844 102 102 102
0.016129 0.387097 0.150104 102 102 102
0.032258 0.387097 0.150884 102 102 102
0.048387 0.387097 0.152185 102 102 102
0.064516 0.387097 0.154006 102 102 102
0.080645 0.387097 0.156348 102 102 102
0.096774 0.387097 0.159209 102 102 102
0.112903 0.387097 0.162591 102 102 102
0.129032 0.387097 0.166493 102 102 102
0.145161 0.387097 0.170916 102 102 102
0.161290 0.387097 0.175858 102 102 102
0.177419 0.387097 0.181322 102 102 102
0.193548 0.387097 0.187305 102 102 102
0.209677 0.387097 0.193809 102 102 102
0.225806 0.387097 0.200832 102 102 102
0.241935 0.387097 0.208377 102 102 102
0.258065 0.387097 0.216441 102 102 102
0.274194 0.387097 0.225026 102 102 102
0.290323 0.387097 0.234131 102 102 102
0.306452 0.387097 0.243757 102 102 102
0.322581 0.387097 0.253902 102 102 102
0.338710 0.387097 0.264568 102 102 102
0.354839 0.387097 0.275754 102 102 102
0.370968 0.387097 0.287461 102 102 102
0.387097 0.387097 0.299688 102 102 102
0.403226 0.387097 0.312435 102 102 102
0.419355 0.387097 0.325702 102 102 102
0.435484 0.387097 0.339490 102 102 102
0.451613 0.387097 0.353798 102 102 102
0.467742 0.387097 0.368626 102 102 102
0.483871 0.387097 0.383975 102 102 102
0.500000 0.387097 0.399844 102 102 102
0.516129 0.387097 0.416233 102 102 102
0.532258 0.387097 0.433143 102 102 102
0.548387 0.387097 0.450572 102 102 102
0.564516 0.387097 0.468522 102 102 102
0.580645 0.387097 0.486993 102 102 102
0.596774 0.387097 0.505983 102 102 102
0.612903 0.387097 0.525494 102 102 102
0.629032 0.387097 0.545525 102 102 102
0.645161 0.387097 0.566077 102 102 102
0.661290 0.387097 0.587149 102 102 102
0.677419 0.387097 0.608741 102 102 102
0.693548 0.387097 0.630853 102 102 102
0.709677 0.387097 0.653486 102 102 102
0.725806 0.387097 0.676639 102 102 102
0.741935 0.387097 0.700312 102 102 102
0.758065 0.387097 0.724506 102 102 102
0.774194 0.387097 0.749220 102 102 102
0.790323 0.387097 0.774454 102 102 102
0.806452 0.387097 0.800208 102 102 102
0.822581 0.387097 0.826483 102 102 102
0.838710 0.387097 0.853278 102 102 102
0.854839 0.387097 0.880593 102 102 102
0.870968 0.387097 0.908429 102 102 102
0.887097 0.387097 0.936785 102 102 102
0.903226 0.387097 0.965661 102 102 102
0.919355 0.387097 0.995057 102 102 102
0.935484 0.387097 1.024974 102 102 102
0.951613 0.387097 1.055411 102 102 102
0.967742 0.387097 1.086368 102 102 102
0.983871 0.387097 1.117846 102 102 102
1.000000 0.387097 1.149844 102 102 102
-1.000000 0.403226 1.162591 102 102 102
-0.983871 0.403226 1.130593 102 102 102
-0.967742 0.403226 1.099115 102 102 102
-0.951613 0.403226 1.068158 102 102 102
-0.935484 0.403226 1.037721 102 102 102
-0.919355 0.403226 1.007804 102 102 102
-0.903226 0.403226 0.978408 102 102 102
-0.887097 0.403226 0.949532 102 102 102
-0.870968 0.403226 0.921176 102 102 102
-0.854839 0.403226 0.893340 102 102 102
-0.838710 0.403226 0.866025 102 102 102
-0.822581 0.403226 0.839230 102 102 102
-0.806452 0.403226 0.812955 102 102 102
-0.790323 0.403226 0.787201 102 102 102
-0.774194 0.403226 0.761967 102 102 102
-0.758065 0.403226 0.737253 102 102 102
-0.741935 0.403226 0.713059 102 102 102
-0.725806 0.403226 0.689386 102 102 102
-0.709677 0.403226 0.666233 102 102 102
-0.693548 0.403226 0.643600 102 102 102
-0.677419 0.403226 0.621488 102 102 102
-0.661290 0.403226 0.599896 102 102 102
-0.645161 0.403226 0.578824 102 102 102
-0.629032 0.403226 0.558273 102 102 102
-0.612903 0.403226 0.538241 102 102 102
-0.596774 0.403226 0.518730 102 102 102
-0.580645 0.403226 0.499740 102 102 102
-0.564516 0.403226 0.481270 102 102 102
-0.548387 0.403226 0.463319 102 102 102
-0.532258 0.403226 0.445890 102 102 102
-0.516129 0.403226 0.428980 102 102 102
-0.500000 0.403226 0.412591 102 102 102
-0.483871 0.403226 0.396722 102 102 102
-0.467742 0.403226 0.381374 102 102 102
-0.451613 0.403226 0.366545 102 102 102
-0.435484 0.403226 0.352237 102 102 102
-0.419355 0.403226 0.338450 102 102 102
-0.403226 0.403226 0.325182 102 102 102
-0.387097 0.403226 0.312435 102 102 102
-0.370968 0.403226 0.300208 102 102 102
-0.354839 0.403226 0.288502 102 102 102
-0.338710 0.403226 0.277315 102 102 102
-0.322581 0.403226 0.266649 102 102 102
-0.306452 0.403226 0.256504 102 102 102
-0.290323 0.403226 0.246878 102 102 102
-0.274194 0.403226 0.237773 102 102 102
-0.258065 0.403226 0.229188 102 102 102
-0.241935 0.403226 0.221124 102 102 102
-0.225806 0.403226 0.213580 102 102 102
-0.209677 0.403226 0.206556 102 102 102
