ply
format ascii 1.0
comment synthetic polynomial dataset
element vertex 1188
property float x
property float y
property float z
property uchar red
property uchar green
property uchar blue
end_header
1.000000 0.548387 1.247659 102 102 102
-1.000000 0.564516 0.116805 102 102 102
-0.983871 0.564516 0.093913 102 102 102
-0.967742 0.564516 0.071540 102 102 102
-0.951613 0.564516 0.049688 102 102 102
-0.935484 0.564516 0.028356 102 102 102
-0.919355 0.564516 0.007544 102 102 102
-0.903226 0.564516 -0.012747 102 102 102
-0.887097 0.564516 -0.032518 102 102 102
-0.870968 0.564516 -0.051769 102 102 102
-0.854839 0.564516 -0.070499 102 102 102
-0.838710 0.564516 -0.088710 102 102 102
-0.822581 0.564516 -0.106400 102 102 102
-0.806452 0.564516 -0.123569 102 102 102
-0.790323 0.564516 -0.140219 102 102 102
-0.774194 0.564516 -0.156348 102 102 102
-0.758065 0.564516 -0.171956 102 102 102
-0.741935 0.564516 -0.187045 102 102 102
-0.725806 0.564516 -0.201613 102 102 102
-0.709677 0.564516 -0.215661 102 102 102
-0.693548 0.564516 -0.229188 102 102 102
-0.677419 0.564516 -0.242196 102 102 102
-0.661290 0.564516 -0.254683 102 102 102
-0.645161 0.564516 -0.266649 102 102 102
-0.629032 0.564516 -0.278096 102 102 102
-0.612903 0.564516 -0.289022 102 102 102
-0.596774 0.564516 -0.299428 102 102 102
-0.580645 0.564516 -0.309313 102 102 102
-0.564516 0.564516 -0.318678 102 102 102
-0.548387 0.564516 -0.327523 102 102 102
-0.532258 0.564516 -0.335848 102 102 102
-0.516129 0.564516 -0.343652 102 102 102
-0.500000 0.564516 -0.350937 102 102 102
-0.483871 0.564516 -0.357700 102 102 102
-0.467742 0.564516 -0.363944 102 102 102
-0.451613 0.564516 -0.369667 102 102 102
-0.435484 0.564516 -0.374870 102 102 102
-0.419355 0.564516 -0.379553 102 102 102
-0.403226 0.564516 -0.383715 102 102 102
-0.387097 0.564516 -0.387357 102 102 102
-0.370968 0.564516 -0.390479 102 102 102
-0.354839 0.564516 -0.393080 102 102 102
-0.338710 0.564516 -0.395161 102 102 102
-0.322581 0.564516 -0.396722 102 102 102
-0.306452 0.564516 -0.397763 102 102 102
-0.290323 0.564516 -0.398283 102 102 102
-0.274194 0.564516 -0.398283 102 102 102
-0.258065 0.564516 -0.397763 102 102 102
-0.241935 0.564516 -0.396722 102 102 102
-0.225806 0.564516 -0.395161 102 102 102
-0.209677 0.564516 -0.393080 102 102 102
-0.193548 0.564516 -0.390479 102 102 102
-0.177419 0.564516 -0.387357 102 102 102
-0.161290 0.564516 -0.383715 102 102 102
-0.145161 0.564516 -0.379553 102 102 102
-0.129032 0.564516 -0.374870 102 102 102
-0.112903 0.564516 -0.369667 102 102 102
-0.096774 0.564516 -0.363944 102 102 102
-0.080645 0.564516 -0.357700 102 102 102
-0.064516 0.564516 -0.350937 102 102 102
-0.048387 0.564516 -0.343652 102 102 102
-0.032258 0.564516 -0.335848 102 102 102
-0.016129 0.564516 -0.327523 102 102 102
0.000000 0.564516 -0.318678 102 102 102
0.016129 0.564516 -0.309313 102 102 102
0.032258 0.564516 -0.299428 102 102 102
0.048387 0.564516 -0.289022 102 102 102
0.064516 0.564516 -0.278096 102 102 102
0.080645 0.564516 -0.266649 102 102 102
0.096774 0.564516 -0.254683 102 102 102
0.112903 0.564516 -0.242196 102 102 102
0.129032 0.564516 -0.229188 102 102 102
0.145161 0.564516 -0.215661 102 102 102
0.161290 0.564516 -0.201613 102 102 102
0.177419 0.564516 -0.187045 102 102 102
0.193548 0.564516 -0.171956 102 102 102
0.209677 0.564516 -0.156348 102 102 102
0.225806 0.564516 -0.140219 102 102 102
0.241935 0.564516 -0.123569 102 102 102
0.258065 0.564516 -0.106400 102 102 102
0.274194 0.564516 -0.088710 102 102 102
0.290323 0.564516 -0.070499 102 102 102
0.306452 0.564516 -0.051769 102 102 102
0.322581 0.564516 -0.032518 102 102 102
0.338710 0.564516 -0.012747 102 102 102
0.354839 0.564516 0.007544 102 102 102
0.370968 0.564516 0.028356 102 102 102
0.387097 0.564516 0.049688 102 102 102
0.403226 0.564516 0.071540 102 102 102
0.419355 0.564516 0.093913 102 102 102
0.435484 0.564516 0.116805 102 102 102
0.451613 0.564516 0.140219 102 102 102
0.467742 0.564516 0.164152 102 102 102
0.483871 0.564516 0.188606 102 102 102
0.500000 0.564516 0.213580 102 102 102
0.516129 0.564516 0.239074 102 102 102
0.532258 0.564516 0.265088 102 102 102
0.548387 0.564516 0.291623 102 102 102
0.564516 0.564516 0.318678 102 102 102
0.580645 0.564516 0.346254 102 102 102
0.596774 0.564516 0.374350 102 102 102
0.612903 0.564516 0.402966 102 102 102
0.629032 0.564516 0.432102 102 102 102
0.645161 0.564516 0.461759 102 102 102
0.661290 0.564516 0.491935 102 102 102
0.677419 0.564516 0.522633 102 102 102
0.693548 0.564516 0.553850 102 102 102
0.709677 0.564516 0.585588 102 102 102
0.725806 0.564516 0.617846 102 102 102
0.741935 0.564516 0.650624 102 102 102
0.758065 0.564516 0.683923 102 102 102
0.774194 0.564516 0.717742 102 102 102
0.790323 0.564516 0.752081 102 102 102
0.806452 0.564516 0.786941 102 102 102
0.822581 0.564516 0.822321 102 102 102
0.838710 0.564516 0.858221 102 102 102
0.854839 0.564516 0.894641 102 102 102
0.870968 0.564516 0.931582 102 102 102
0.887097 0.564516 0.969043 102 102 102
0.903226 0.564516 1.007024 102 102 102
0.919355 0.564516 1.045526 102 102 102
0.935484 0.564516 1.084547 102 102 102
0.951613 0.564516 1.124089 102 102 102
0.967742 0.564516 1.164152 102 102 102
0.983871 0.564516 1.204735 102 102 102
1.000000 0.564516 1.245838 102 102 102
-1.000000 0.580645 0.082206 102 102 102
-0.983871 0.580645 0.059573 102 102 102
-0.967742 0.580645 0.037461 102 102 102
-0.951613 0.580645 0.015869 102 102 102
-0.935484 0.580645 -0.005203 102 102 102
-0.919355 0.580645 -0.025754 102 102 102
-0.903226 0.580645 -0.045786 102 102 102
-0.887097 0.580645 -0.065297 102 102 102
-0.870968 0.580645 -0.084287 102 102 102
-0.854839 0.580645 -0.102758 102 102 102
-0.838710 0.580645 -0.120708 102 102 102
-0.822581 0.580645 -0.138137 102 102 102
-0.806452 0.580645 -0.155047 102 102 102
-0.790323 0.580645 -0.171436 102 102 102
-0.774194 0.580645 -0.187305 102 102 102
-0.758065 0.580645 -0.202653 102 102 102
-0.741935 0.580645 -0.217482 102 102 102
-0.725806 0.580645 -0.231790 102 102 102
-0.709677 0.580645 -0.245578 102 102 102
-0.693548 0.580645 -0.258845 102 102 102
-0.677419 0.580645 -0.271592 102 102 102
-0.661290 0.580645 -0.283819 102 102 102
-0.645161 0.580645 -0.295525 102 102 102
-0.629032 0.580645 -0.306712 102 102 102
-0.612903 0.580645 -0.317378 102 102 102
-0.596774 0.580645 -0.327523 102 102 102
-0.580645 0.580645 -0.337149 102 102 102
-0.564516 0.580645 -0.346254 102 102 102
-0.548387 0.580645 -0.354839 102 102 102
-0.532258 0.580645 -0.362903 102 102 102
-0.516129 0.580645 -0.370447 102 102 102
-0.500000 0.580645 -0.377471 102 102 102
-0.483871 0.580645 -0.383975 102 102 102
-0.467742 0.580645 -0.389958 102 102 102
-0.451613 0.580645 -0.395421 102 102 102
-0.435484 0.580645 -0.400364 102 102 102
-0.419355 0.580645 -0.404787 102 102 102
-0.403226 0.580645 -0.408689 102 102 102
-0.387097 0.580645 -0.412071 102 102 102
-0.370968 0.580645 -0.414932 102 102 102
-0.354839 0.580645 -0.417274 102 102 102
-0.338710 0.580645 -0.419095 102 102 102
-0.322581 0.580645 -0.420395 102 102 102
-0.306452 0.580645 -0.421176 102 102 102
-0.290323 0.580645 -0.421436 102 102 102
-0.274194 0.580645 -0.421176 102 102 102
-0.258065 0.580645 -0.420395 102 102 102
-0.241935 0.580645 -0.419095 102 102 102
-0.225806 0.580645 -0.417274 102 102 102
-0.209677 0.580645 -0.414932 102 102 102
-0.193548 0.580645 -0.412071 102 102 102
-0.177419 0.580645 -0.408689 102 102 102
-0.161290 0.580645 -0.404787 102 102 102
-0.145161 0.580645 -0.400364 102 102 102
-0.129032 0.580645 -0.395421 102 102 102
-0.112903 0.580645 -0.389958 102 102 102
-0.096774 0.580645 -0.383975 102 102 102
-0.080645 0.580645 -0.377471 102 102 102
-0.064516 0.580645 -0.370447 102 102 102
-0.048387 0.580645 -0.362903 102 102 102
-0.032258 0.580645 -0.354839 102 102 102
-0.016129 0.580645 -0.346254 102 102 102
0.000000 0.580645 -0.337149 102 102 102
0.016129 0.580645 -0.327523 102 102 102
0.032258 0.580645 -0.317378 102 102 102
0.048387 0.580645 -0.306712 102 102 102
0.064516 0.580645 -0.295525 102 102 102
0.080645 0.580645 -0.283819 102 102 102
0.096774 0.580645 -0.271592 102 102 102
0.112903 0.580645 -0.258845 102 102 102
0.129032 0.580645 -0.245578 102 102 102
0.145161 0.580645 -0.231790 102 102 102
0.161290 0.580645 -0.217482 102 102 102
0.177419 0.580645 -0.202653 102 102 102
0.193548 0.580645 -0.187305 102 102 102
0.209677 0.580645 -0.171436 102 102 102
0.225806 0.580645 -0.155047 102 102 102
0.241935 0.580645 -0.138137 102 102 102
0.258065 0.580645 -0.120708 102 102 102
0.274194 0.580645 -0.102758 102 102 102
0.290323 0.580645 -0.084287 102 102 102
0.306452 0.580645 -0.065297 102 102 102
0.322581 0.580645 -0.045786 102 102 102
0.338710 0.580645 -0.025754 102 102 102
0.354839 0.580645 -0.005203 102 102 102
0.370968 0.580645 0.015869 102 102 102
0.387097 0.580645 0.037461 102 102 102
0.403226 0.580645 0.059573 102 102 102
0.419355 0.580645 0.082206 102 102 102
0.435484 0.580645 0.105359 102 102 102
0.451613 0.580645 0.129032 102 102 102
0.467742 0.580645 0.153226 102 102 102
0.483871 0.580645 0.177940 102 102 102
0.500000 0.580645 0.203174 102 102 102
0.516129 0.580645 0.228928 102 102 102
0.532258 0.580645 0.255203 102 102 102
0.548387 0.580645 0.281998 102 102 102
0.564516 0.580645 0.309313 102 102 102
0.580645 0.580645 0.337149 102 102 102
0.596774 0.580645 0.365505 102 102 102
0.612903 0.580645 0.394381 102 102 102
0.629032 0.580645 0.423777 102 102 102
0.645161 0.580645 0.453694 102 102 102
0.661290 0.580645 0.484131 102 102 102
0.677419 0.580645 0.515088 102 102 102
0.693548 0.580645 0.546566 102 102 102
0.709677 0.580645 0.578564 102 102 102
0.725806 0.580645 0.611082 102 102 102
0.741935 0.580645 0.644121 102 102 102
0.758065 0.580645 0.677679 102 102 102
0.774194 0.580645 0.711759 102 102 102
0.790323 0.580645 0.746358 102 102 102
0.806452 0.580645 0.781478 102 102 102
0.822581 0.580645 0.817118 102 102 102
0.838710 0.580645 0.853278 102 102 102
0.854839 0.580645 0.889958 102 102 102
0.870968 0.580645 0.927159 102 102 102
0.887097 0.580645 0.964880 102 102 102
0.903226 0.580645 1.003122 102 102 102
0.919355 0.580645 1.041883 102 102 102
0.935484 0.580645 1.081165 102 102 102
0.951613 0.580645 1.120968 102 102 102
0.967742 0.580645 1.161290 102 102 102
0.983871 0.580645 1.202133 102 102 102
1.000000 0.580645 1.243496 102 102 102
-1.000000 0.596774 0.047086 102 102 102
-0.983871 0.596774 0.024714 102 102 102
-0.967742 0.596774 0.002862 102 102 102
-0.951613 0.596774 -0.018470 102 102 102
-0.935484 0.596774 -0.039282 102 102 102
-0.919355 0.596774 -0.059573 102 102 102
-0.903226 0.596774 -0.079344 102 102 102
-0.887097 0.596774 -0.098595 102 102 102
-0.870968 0.596774 -0.117326 102 102 102
-0.854839 0.596774 -0.135536 102 102 102
-0.838710 0.596774 -0.153226 102 102 102
-0.822581 0.596774 -0.170395 102 102 102
-0.806452 0.596774 -0.187045 102 102 102
-0.790323 0.596774 -0.203174 102 102 102
-0.774194 0.596774 -0.218783 102 102 102
-0.758065 0.596774 -0.233871 102 102 102
-0.741935 0.596774 -0.248439 102 102 102
-0.725806 0.596774 -0.262487 102 102 102
-0.709677 0.596774 -0.276015 102 102 102
-0.693548 0.596774 -0.289022 102 102 102
-0.677419 0.596774 -0.301509 102 102 102
-0.661290 0.596774 -0.313476 102 102 102
-0.645161 0.596774 -0.324922 102 102 102
-0.629032 0.596774 -0.335848 102 102 102
-0.612903 0.596774 -0.346254 102 102 102
-0.596774 0.596774 -0.356139 102 102 102
-0.580645 0.596774 -0.365505 102 102 102
-0.564516 0.596774 -0.374350 102 102 102
-0.548387 0.596774 -0.382674 102 102 102
-0.532258 0.596774 -0.390479 102 102 102
-0.516129 0.596774 -0.397763 102 102 102
-0.500000 0.596774 -0.404527 102 102 102
-0.483871 0.596774 -0.410770 102 102 102
-0.467742 0.596774 -0.416493 102 102 102
-0.451613 0.596774 -0.421696 102 102 102
-0.435484 0.596774 -0.426379 102 102 102
-0.419355 0.596774 -0.430541 102 102 102
-0.403226 0.596774 -0.434183 102 102 102
-0.387097 0.596774 -0.437305 102 102 102
-0.370968 0.596774 -0.439906 102 102 102
-0.354839 0.596774 -0.441988 102 102 102
-0.338710 0.596774 -0.443548 102 102 102
-0.322581 0.596774 -0.444589 102 102 102
-0.306452 0.596774 -0.445109 102 102 102
-0.290323 0.596774 -0.445109 102 102 102
-0.274194 0.596774 -0.444589 102 102 102
-0.258065 0.596774 -0.443548 102 102 102
-0.241935 0.596774 -0.441988 102 102 102
-0.225806 0.596774 -0.439906 102 102 102
-0.209677 0.596774 -0.437305 102 102 102
-0.193548 0.596774 -0.434183 102 102 102
-0.177419 0.596774 -0.430541 102 102 102
-0.161290 0.596774 -0.426379 102 102 102
-0.145161 0.596774 -0.421696 102 102 102
-0.129032 0.596774 -0.416493 102 102 102
-0.112903 0.596774 -0.410770 102 102 102
-0.096774 0.596774 -0.404527 102 102 102
-0.080645 0.596774 -0.397763 102 102 102
-0.064516 0.596774 -0.390479 102 102 102
-0.048387 0.596774 -0.382674 102 102 102
-0.032258 0.596774 -0.374350 102 102 102
-0.016129 0.596774 -0.365505 102 102 102
0.000000 0.596774 -0.356139 102 102 102
0.016129 0.596774 -0.346254 102 102 102
0.032258 0.596774 -0.335848 102 102 102
0.048387 0.596774 -0.324922 102 102 102
0.064516 0.596774 -0.313476 102 102 102
0.080645 0.596774 -0.301509 102 102 102
0.096774 0.596774 -0.289022 102 102 102
0.112903 0.596774 -0.276015 102 102 102
0.129032 0.596774 -0.262487 102 102 102
0.145161 0.596774 -0.248439 102 102 102
0.161290 0.596774 -0.233871 102 102 102
0.177419 0.596774 -0.218783 102 102 102
0.193548 0.596774 -0.203174 102 102 102
0.209677 0.596774 -0.187045 102 102 102
0.225806 0.596774 -0.170395 102 102 102
0.241935 0.596774 -0.153226 102 102 102
0.258065 0.596774 -0.135536 102 102 102
0.274194 0.596774 -0.117326 102 102 102
0.290323 0.596774 -0.098595 102 102 102
0.306452 0.596774 -0.079344 102 102 102
0.322581 0.596774 -0.059573 102 102 102
0.338710 0.596774 -0.039282 102 102 102
0.354839 0.596774 -0.018470 102 102 102
0.370968 0.596774 0.002862 102 102 102
0.387097 0.596774 0.024714 102 102 102
0.403226 0.596774 0.047086 102 102 102
0.419355 0.596774 0.069979 102 102 102
0.435484 0.596774 0.093392 102 102 102
0.451613 0.596774 0.117326 102 102 102
0.467742 0.596774 0.141779 102 102 102
0.483871 0.596774 0.166753 102 102 102
0.500000 0.596774 0.192248 102 102 102
0.516129 0.596774 0.218262 102 102 102
0.532258 0.596774 0.244797 102 102 102
0.548387 0.596774 0.271852 102 102 102
0.564516 0.596774 0.299428 102 102 102
0.580645 0.596774 0.327523 102 102 102
0.596774 0.596774 0.356139 102 102 102
0.612903 0.596774 0.385276 102 102 102
0.629032 0.596774 0.414932 102 102 102
0.645161 0.596774 0.445109 102 102 102
0.661290 0.596774 0.475806 102 102 102
0.677419 0.596774 0.507024 102 102 102
0.693548 0.596774 0.538762 102 102 102
0.709677 0.596774 0.571020 102 102 102
0.725806 0.596774 0.603798 102 102 102
0.741935 0.596774 0.637097 102 102 102
0.758065 0.596774 0.670916 102 102 102
0.774194 0.596774 0.705255 102 102 102
0.790323 0.596774 0.740114 102 102 102
0.806452 0.596774 0.775494 102 102 102
0.822581 0.596774 0.811394 102 102 102
0.838710 0.596774 0.847815 102 102 102
0.854839 0.596774 0.884755 102 102 102
0.870968 0.596774 0.922216 102 102 102
0.887097 0.596774 0.960198 102 102 102
0.903226 0.596774 0.998699 102 102 102
0.919355 0.596774 1.037721 102 102 102
0.935484 0.596774 1.077263 102 102 102
0.951613 0.596774 1.117326 102 102 102
0.967742 0.596774 1.157908 102 102 102
0.983871 0.596774 1.199011 102 102 102
1.000000 0.596774 1.240635 102 102 102
-1.000000 0.612903 0.011446 102 102 102
-0.983871 0.612903 -0.010666 102 102 102
-0.967742 0.612903 -0.032258 102 102 102
-0.951613 0.612903 -0.053330 102 102 102
-0.935484 0.612903 -0.073881 102 102 102
-0.919355 0.612903 -0.093913 102 102 102
-0.903226 0.612903 -0.113424 102 102 102
-0.887097 0.612903 -0.132414 102 102 102
-0.870968 0.612903 -0.150884 102 102 102
-0.854839 0.612903 -0.168835 102 102 102
-0.838710 0.612903 -0.186264 102 102 102
-0.822581 0.612903 -0.203174 102 102 102
-0.806452 0.612903 -0.219563 102 102 102
-0.790323 0.612903 -0.235432 102 102 102
-0.774194 0.612903 -0.250780 102 102 102
-0.758065 0.612903 -0.265609 102 102 102
-0.741935 0.612903 -0.279917 102 102 102
-0.725806 0.612903 -0.293704 102 102 102
-0.709677 0.612903 -0.306972 102 102 102
-0.693548 0.612903 -0.319719 102 102 102
-0.677419 0.612903 -0.331946 102 102 102
-0.661290 0.612903 -0.343652 102 102 102
-0.645161 0.612903 -0.354839 102 102 102
-0.629032 0.612903 -0.365505 102 102 102
-0.612903 0.612903 -0.375650 102 102 102
-0.596774 0.612903 -0.385276 102 102 102
-0.580645 0.612903 -0.394381 102 102 102
-0.564516 0.612903 -0.402966 102 102 102
-0.548387 0.612903 -0.411030 102 102 102
-0.532258 0.612903 -0.418574 102 102 102
-0.516129 0.612903 -0.425598 102 102 102
-0.500000 0.612903 -0.432102 102 102 102
-0.483871 0.612903 -0.438085 102 102 102
-0.467742 0.612903 -0.443548 102 102 102
-0.451613 0.612903 -0.448491 102 102 102
-0.435484 0.612903 -0.452914 102 102 102
-0.419355 0.612903 -0.456816 102 102 102
-0.403226 0.612903 -0.460198 102 102 102
-0.387097 0.612903 -0.463059 102 102 102
-0.370968 0.612903 -0.465401 102 102 102
-0.354839 0.612903 -0.467222 102 102 102
-0.338710 0.612903 -0.468522 102 102 102
-0.322581 0.612903 -0.469303 102 102 102
-0.306452 0.612903 -0.469563 102 102 102
-0.290323 0.612903 -0.469303 102 102 102
-0.274194 0.612903 -0.468522 102 102 102
-0.258065 0.612903 -0.467222 102 102 102
-0.241935 0.612903 -0.465401 102 102 102
-0.225806 0.612903 -0.463059 102 102 102
-0.209677 0.612903 -0.460198 102 102 102
-0.193548 0.612903 -0.456816 102 102 102
-0.177419 0.612903 -0.452914 102 102 102
-0.161290 0.612903 -0.448491 102 102 102
-0.145161 0.612903 -0.443548 102 102 102
-0.129032 0.612903 -0.438085 102 102 102
-0.112903 0.612903 -0.432102 102 102 102
-0.096774 0.612903 -0.425598 102 102 102
-0.080645 0.612903 -0.418574 102 102 102
-0.064516 0.612903 -0.411030 102 102 102
-0.048387 0.612903 -0.402966 102 102 102
-0.032258 0.612903 -0.394381 102 102 102
-0.016129 0.612903 -0.385276 102 102 102
0.000000 0.612903 -0.375650 102 102 102
0.016129 0.612903 -0.365505 102 102 102
0.032258 0.612903 -0.354839 102 102 102
0.048387 0.612903 -0.343652 102 102 102
0.064516 0.612903 -0.331946 102 102 102
0.080645 0.612903 -0.319719 102 102 102
0.096774 0.612903 -0.306972 102 102 102
0.112903 0.612903 -0.293704 102 102 102
0.129032 0.612903 -0.279917 102 102 102
0.145161 0.612903 -0.265609 102 102 102
0.161290 0.612903 -0.250780 102 102 102
0.177419 0.612903 -0.235432 102 102 102
0.193548 0.612903 -0.219563 102 102 102
0.209677 0.612903 -0.203174 102 102 102
0.225806 0.612903 -0.186264 102 102 102
0.241935 0.612903 -0.168835 102 102 102
0.258065 0.612903 -0.150884 102 102 102
0.274194 0.612903 -0.132414 102 102 102
0.290323 0.612903 -0.113424 102 102 102
0.306452 0.612903 -0.093913 102 102 102
0.322581 0.612903 -0.073881 102 102 102
0.338710 0.612903 -0.053330 102 102 102
0.354839 0.612903 -0.032258 102 102 102
0.370968 0.612903 -0.010666 102 102 102
0.387097 0.612903 0.011446 102 102 102
0.403226 0.612903 0.034079 102 102 102
0.419355 0.612903 0.057232 102 102 102
0.435484 0.612903 0.080905 102 102 102
0.451613 0.612903 0.105099 102 102 102
0.467742 0.612903 0.129813 102 102 102
0.483871 0.612903 0.155047 102 102 102
0.500000 0.612903 0.180801 102 102 102
0.516129 0.612903 0.207076 102 102 102
0.532258 0.612903 0.233871 102 102 102
0.548387 0.612903 0.261186 102 102 102
0.564516 0.612903 0.289022 102 102 102
0.580645 0.612903 0.317378 102 102 102
0.596774 0.612903 0.346254 102 102 102
0.612903 0.612903 0.375650 102 102 102
0.629032 0.612903 0.405567 102 102 102
0.645161 0.612903 0.436004 102 102 102
0.661290 0.612903 0.466962 102 102 102
0.677419 0.612903 0.498439 102 102 102
0.693548 0.612903 0.530437 102 102 102
0.709677 0.612903 0.562955 102 102 102
0.725806 0.612903 0.595994 102 102 102
0.741935 0.612903 0.629553 102 102 102
0.758065 0.612903 0.663632 102 102 102
0.774194 0.612903 0.698231 102 102 102
0.790323 0.612903 0.733351 102 102 102
0.806452 0.612903 0.768991 102 102 102
0.822581 0.612903 0.805151 102 102 102
0.838710 0.612903 0.841831 102 102 102
0.854839 0.612903 0.879032 102 102 102
0.870968 0.612903 0.916753 102 102 102
0.887097 0.612903 0.954995 102 102 102
0.903226 0.612903 0.993757 102 102 102
0.919355 0.612903 1.033038 102 102 102
0.935484 0.612903 1.072841 102 102 102
0.951613 0.612903 1.113163 102 102 102
0.967742 0.612903 1.154006 102 102 102
0.983871 0.612903 1.195369 102 102 102
1.000000 0.612903 1.237253 102 102 102
-1.000000 0.629032 -0.024714 102 102 102
-0.983871 0.629032 -0.046566 102 102 102
-0.967742 0.629032 -0.067898 102 102 102
-0.951613 0.629032 -0.088710 102 102 102
-0.935484 0.629032 -0.109001 102 102 102
-0.919355 0.629032 -0.128772 102 102 102
-0.903226 0.629032 -0.148023 102 102 102
-0.887097 0.629032 -0.166753 102 102 102
-0.870968 0.629032 -0.184964 102 102 102
-0.854839 0.629032 -0.202653 102 102 102
-0.838710 0.629032 -0.219823 102 102 102
-0.822581 0.629032 -0.236472 102 102 102
-0.806452 0.629032 -0.252601 102 102 102
-0.790323 0.629032 -0.268210 102 102 102
-0.774194 0.629032 -0.283299 102 102 102
-0.758065 0.629032 -0.297867 102 102 102
-0.741935 0.629032 -0.311915 102 102 102
-0.725806 0.629032 -0.325442 102 102 102
-0.709677 0.629032 -0.338450 102 102 102
-0.693548 0.629032 -0.350937 102 102 102
-0.677419 0.629032 -0.362903 102 102 102
-0.661290 0.629032 -0.374350 102 102 102
-0.645161 0.629032 -0.385276 102 102 102
-0.629032 0.629032 -0.395682 102 102 102
-0.612903 0.629032 -0.405567 102 102 102
-0.596774 0.629032 -0.414932 102 102 102
-0.580645 0.629032 -0.423777 102 102 102
-0.564516 0.629032 -0.432102 102 102 102
-0.548387 0.629032 -0.439906 102 102 102
-0.532258 0.629032 -0.447190 102 102 102
-0.516129 0.629032 -0.453954 102 102 102
-0.500000 0.629032 -0.460198 102 102 102
-0.483871 0.629032 -0.465921 102 102 102
-0.467742 0.629032 -0.471124 102 102 102
-0.451613 0.629032 -0.475806 102 102 102
-0.435484 0.629032 -0.479969 102 102 102
-0.419355 0.629032 -0.483611 102 102 102
-0.403226 0.629032 -0.486733 102 102 102
-0.387097 0.629032 -0.489334 102 102 102
-0.370968 0.629032 -0.491415 102 102 102
-0.354839 0.629032 -0.492976 102 102 102
-0.338710 0.629032 -0.494017 102 102 102
-0.322581 0.629032 -0.494537 102 102 102
-0.306452 0.629032 -0.494537 102 102 102
-0.290323 0.629032 -0.494017 102 102 102
-0.274194 0.629032 -0.492976 102 102 102
-0.258065 0.629032 -0.491415 102 102 102
-0.241935 0.629032 -0.489334 102 102 102
-0.225806 0.629032 -0.486733 102 102 102
-0.209677 0.629032 -0.483611 102 102 102
-0.193548 0.629032 -0.479969 102 102 102
-0.177419 0.629032 -0.475806 102 102 102
-0.161290 0.629032 -0.471124 102 102 102
-0.145161 0.629032 -0.465921 102 102 102
-0.129032 0.629032 -0.460198 102 102 102
-0.112903 0.629032 -0.453954 102 102 102
-0.096774 0.629032 -0.447190 102 102 102
-0.080645 0.629032 -0.439906 102 102 102
-0.064516 0.629032 -0.432102 102 102 102
-0.048387 0.629032 -0.423777 102 102 102
-0.032258 0.629032 -0.414932 102 102 102
-0.016129 0.629032 -0.405567 102 102 102
0.000000 0.629032 -0.395682 102 102 102
0.016129 0.629032 -0.385276 102 102 102
0.032258 0.629032 -0.374350 102 102 102
0.048387 0.629032 -0.362903 102 102 102
0.064516 0.629032 -0.350937 102 102 102
0.080645 0.629032 -0.338450 102 102 102
0.096774 0.629032 -0.325442 102 102 102
0.112903 0.629032 -0.311915 102 102 102
0.129032 0.629032 -0.297867 102 102 102
0.145161 0.629032 -0.283299 102 102 102
0.161290 0.629032 -0.268210 102 102 102
0.177419 0.629032 -0.252601 102 102 102
0.193548 0.629032 -0.236472 102 102 102
0.209677 0.629032 -0.219823 102 102 102
0.225806 0.629032 -0.202653 102 102 102
0.241935 0.629032 -0.184964 102 102 102
0.258065 0.629032 -0.166753 102 102 102
0.274194 0.629032 -0.148023 102 102 102
0.290323 0.629032 -0.128772 102 102 102
0.306452 0.629032 -0.109001 102 102 102
0.322581 0.629032 -0.088710 102 102 102
0.338710 0.629032 -0.067898 102 102 102
0.354839 0.629032 -0.046566 102 102 102
0.370968 0.629032 -0.024714 102 102 102
0.387097 0.629032 -0.002341 102 102 102
0.403226 0.629032 0.020552 102 102 102
0.419355 0.629032 0.043965 102 102 102
0.435484 0.629032 0.067898 102 102 102
0.451613 0.629032 0.092352 102 102 102
0.467742 0.629032 0.117326 102 102 102
0.483871 0.629032 0.142820 102 102 102
0.500000 0.629032 0.168835 102 102 102
0.516129 0.629032 0.195369 102 102 102
0.532258 0.629032 0.222425 102 102 102
0.548387 0.629032 0.250000 102 102 102
0.564516 0.629032 0.278096 102 102 102
0.580645 0.629032 0.306712 102 102 102
0.596774 0.629032 0.335848 102 102 102
0.612903 0.629032 0.365505 102 102 102
0.629032 0.629032 0.395682 102 102 102
0.645161 0.629032 0.426379 102 102 102
0.661290 0.629032 0.457596 102 102 102
0.677419 0.629032 0.489334 102 102 102
0.693548 0.629032 0.521592 102 102 102
0.709677 0.629032 0.554370 102 102 102
0.725806 0.629032 0.587669 102 102 102
0.741935 0.629032 0.621488 102 102 102
0.758065 0.629032 0.655827 102 102 102
0.774194 0.629032 0.690687 102 102 102
0.790323 0.629032 0.726067 102 102 102
0.806452 0.629032 0.761967 102 102 102
0.822581 0.629032 0.798387 102 102 102
0.838710 0.629032 0.835328 102 102 102
0.854839 0.629032 0.872789 102 102 102
0.870968 0.629032 0.910770 102 102 102
0.887097 0.629032 0.949272 102 102 102
0.903226 0.629032 0.988293 102 102 102
0.919355 0.629032 1.027836 102 102 102
0.935484 0.629032 1.067898 102 102 102
0.951613 0.629032 1.108481 102 102 102
0.967742 0.629032 1.149584 102 102 102
0.983871 0.629032 1.191207 102 102 102
1.000000 0.629032 1.233351 102 102 102
-1.000000 0.645161 -0.061394 102 102 102
-0.983871 0.645161 -0.082986 102 102 102
-0.967742 0.645161 -0.104058 102 102 102
-0.951613 0.645161 -0.124610 102 102 102
-0.935484 0.645161 -0.144641 102 102 102
-0.919355 0.645161 -0.164152 102 102 102
-0.903226 0.645161 -0.183143 102 102 102
-0.887097 0.645161 -0.201613 102 102 102
-0.870968 0.645161 -0.219563 102 102 102
-0.854839 0.645161 -0.236993 102 102 102
-0.838710 0.645161 -0.253902 102 102 102
-0.822581 0.645161 -0.270291 102 102 102
-0.806452 0.645161 -0.286160 102 102 102
-0.790323 0.645161 -0.301509 102 102 102
-0.774194 0.645161 -0.316337 102 102 102
-0.758065 0.645161 -0.330645 102 102 102
-0.741935 0.645161 -0.344433 102 102 102
-0.725806 0.645161 -0.357700 102 102 102
-0.709677 0.645161 -0.370447 102 102 102
-0.693548 0.645161 -0.382674 102 102 102
-0.677419 0.645161 -0.394381 102 102 102
-0.661290 0.645161 -0.405567 102 102 102
-0.645161 0.645161 -0.416233 102 102 102
-0.629032 0.645161 -0.426379 102 102 102
-0.612903 0.645161 -0.436004 102 102 102
-0.596774 0.645161 -0.445109 102 102 102
-0.580645 0.645161 -0.453694 102 102 102
-0.564516 0.645161 -0.461759 102 102 102
-0.548387 0.645161 -0.469303 102 102 102
-0.532258 0.645161 -0.476327 102 102 102
-0.516129 0.645161 -0.482830 102 102 102
-0.500000 0.645161 -0.488814 102 102 102
-0.483871 0.645161 -0.494277 102 102 102
-0.467742 0.645161 -0.499220 102 102 102
-0.451613 0.645161 -0.503642 102 102 102
-0.435484 0.645161 -0.507544 102 102 102
-0.419355 0.645161 -0.510926 102 102 102
-0.403226 0.645161 -0.513788 102 102 102
-0.387097 0.645161 -0.516129 102 102 102
-0.370968 0.645161 -0.517950 102 102 102
-0.354839 0.645161 -0.519251 102 102 102
-0.338710 0.645161 -0.520031 102 102 102
-0.322581 0.645161 -0.520291 102 102 102
-0.306452 0.645161 -0.520031 102 102 102
-0.290323 0.645161 -0.519251 102 102 102
-0.274194 0.645161 -0.517950 102 102 102
-0.258065 0.645161 -0.516129 102 102 102
-0.241935 0.645161 -0.513788 102 102 102
-0.225806 0.645161 -0.510926 102 102 102
-0.209677 0.645161 -0.507544 102 102 102
-0.193548 0.645161 -0.503642 102 102 102
-0.177419 0.645161 -0.499220 102 102 102
-0.161290 0.645161 -0.494277 102 102 102
-0.145161 0.645161 -0.488814 102 102 102
-0.129032 0.645161 -0.482830 102 102 102
-0.112903 0.645161 -0.476327 102 102 102
-0.096774 0.645161 -0.469303 102 102 102
-0.080645 0.645161 -0.461759 102 102 102
-0.064516 0.645161 -0.453694 102 102 102
-0.048387 0.645161 -0.445109 102 102 102
-0.032258 0.645161 -0.436004 102 102 102
-0.016129 0.645161 -0.426379 102 102 102
0.000000 0.645161 -0.416233 102 102 102
0.016129 0.645161 -0.405567 102 102 102
0.032258 0.645161 -0.394381 102 102 102
0.048387 0.645161 -0.382674 102 102 102
0.064516 0.645161 -0.370447 102 102 102
0.080645 0.645161 -0.357700 102 102 102
0.096774 0.645161 -0.344433 102 102 102
0.112903 0.645161 -0.330645 102 102 102
0.129032 0.645161 -0.316337 102 102 102
0.145161 0.645161 -0.301509 102 102 102
0.161290 0.645161 -0.286160 102 102 102
0.177419 0.645161 -0.270291 102 102 102
0.193548 0.645161 -0.253902 102 102 102
0.209677 0.645161 -0.236993 102 102 102
0.225806 0.645161 -0.219563 102 102 102
0.241935 0.645161 -0.201613 102 102 102
0.258065 0.645161 -0.183143 102 102 102
0.274194 0.645161 -0.164152 102 102 102
0.290323 0.645161 -0.144641 102 102 102
0.306452 0.645161 -0.124610 102 102 102
0.322581 0.645161 -0.104058 102 102 102
0.338710 0.645161 -0.082986 102 102 102
0.354839 0.645161 -0.061394 102 102 102
0.370968 0.645161 -0.039282 102 102 102
0.387097 0.645161 -0.016649 102 102 102
0.403226 0.645161 0.006504 102 102 102
0.419355 0.645161 0.030177 102 102 102
0.435484 0.645161 0.054370 102 102 102
0.451613 0.645161 0.079084 102 102 102
0.467742 0.645161 0.104318 102 102 102
0.483871 0.645161 0.130073 102 102 102
0.500000 0.645161 0.156348 102 102 102
0.516129 0.645161 0.183143 102 102 102
0.532258 0.645161 0.210458 102 102 102
0.548387 0.645161 0.238293 102 102 102
0.564516 0.645161 0.266649 102 102 102
0.580645 0.645161 0.295525 102 102 102
0.596774 0.645161 0.324922 102 102 102
0.612903 0.645161 0.354839 102 102 102
0.629032 0.645161 0.385276 102 102 102
0.645161 0.645161 0.416233 102 102 102
0.661290 0.645161 0.447711 102 102 102
0.677419 0.645161 0.479709 102 102 102
0.693548 0.645161 0.512227 102 102 102
0.709677 0.645161 0.545265 102 102 102
0.725806 0.645161 0.578824 102 102 102
0.741935 0.645161 0.612903 102 102 102
0.758065 0.645161 0.647503 102 102 102
0.774194 0.645161 0.682622 102 102 102
0.790323 0.645161 0.718262 102 102 102
0.806452 0.645161 0.754422 102 102 102
0.822581 0.645161 0.791103 102 102 102
0.838710 0.645161 0.828304 102 102 102
0.854839 0.645161 0.866025 102 102 102
0.870968 0.645161 0.904266 102 102 102
0.887097 0.645161 0.943028 102 102 102
0.903226 0.645161 0.982310 102 102 102
0.919355 0.645161 1.022112 102 102 102
0.935484 0.645161 1.062435 102 102 102
0.951613 0.645161 1.103278 102 102 102
0.967742 0.645161 1.144641 102 102 102
0.983871 0.645161 1.186525 102 102 102
1.000000 0.645161 1.228928 102 102 102
-1.000000 0.661290 -0.098595 102 102 102
-0.983871 0.661290 -0.119927 102 102 102
-0.967742 0.661290 -0.140739 102 102 102
-0.951613 0.661290 -0.161030 102 102 102
-0.935484 0.661290 -0.180801 102 102 102
-0.919355 0.661290 -0.200052 102 102 102
-0.903226 0.661290 -0.218783 102 102 102
-0.887097 0.661290 -0.236993 102 102 102
-0.870968 0.661290 -0.254683 102 102 102
-0.854839 0.661290 -0.271852 102 102 102
-0.838710 0.661290 -0.288502 102 102 102
-0.822581 0.661290 -0.304631 102 102 102
-0.806452 0.661290 -0.320239 102 102 102
-0.790323 0.661290 -0.335328 102 102 102
-0.774194 0.661290 -0.349896 102 102 102
-0.758065 0.661290 -0.363944 102 102 102
-0.741935 0.661290 -0.377471 102 102 102
-0.725806 0.661290 -0.390479 102 102 102
-0.709677 0.661290 -0.402966 102 102 102
-0.693548 0.661290 -0.414932 102 102 102
-0.677419 0.661290 -0.426379 102 102 102
-0.661290 0.661290 -0.437305 102 102 102
-0.645161 0.661290 -0.447711 102 102 102
-0.629032 0.661290 -0.457596 102 102 102
-0.612903 0.661290 -0.466962 102 102 102
-0.596774 0.661290 -0.475806 102 102 102
-0.580645 0.661290 -0.484131 102 102 102
-0.564516 0.661290 -0.491935 102 102 102
-0.548387 0.661290 -0.499220 102 102 102
-0.532258 0.661290 -0.505983 102 102 102
-0.516129 0.661290 -0.512227 102 102 102
-0.500000 0.661290 -0.517950 102 102 102
-0.483871 0.661290 -0.523153 102 102 102
-0.467742 0.661290 -0.527836 102 102 102
-0.451613 0.661290 -0.531998 102 102 102
-0.435484 0.661290 -0.535640 102 102 102
-0.419355 0.661290 -0.538762 102 102 102
-0.403226 0.661290 -0.541363 102 102 102
-0.387097 0.661290 -0.543444 102 102 102
-0.370968 0.661290 -0.545005 102 102 102
-0.354839 0.661290 -0.546046 102 102 102
-0.338710 0.661290 -0.546566 102 102 102
-0.322581 0.661290 -0.546566 102 102 102
-0.306452 0.661290 -0.546046 102 102 102
-0.290323 0.661290 -0.545005 102 102 102
-0.274194 0.661290 -0.543444 102 102 102
-0.258065 0.661290 -0.541363 102 102 102
-0.241935 0.661290 -0.538762 102 102 102
-0.225806 0.661290 -0.535640 102 102 102
-0.209677 0.661290 -0.531998 102 102 102
-0.193548 0.661290 -0.527836 102 102 102
-0.177419 0.661290 -0.523153 102 102 102
-0.161290 0.661290 -0.517950 102 102 102
-0.145161 0.661290 -0.512227 102 102 102
-0.129032 0.661290 -0.505983 102 102 102
-0.112903 0.661290 -0.499220 102 102 102
-0.096774 0.661290 -0.491935 102 102 102
-0.080645 0.661290 -0.484131 102 102 102
-0.064516 0.661290 -0.475806 102 102 102
-0.048387 0.661290 -0.466962 102 102 102
-0.032258 0.661290 -0.457596 102 102 102
-0.016129 0.661290 -0.447711 102 102 102
0.000000 0.661290 -0.437305 102 102 102
0.016129 0.661290 -0.426379 102 102 102
0.032258 0.661290 -0.414932 102 102 102
0.048387 0.661290 -0.402966 102 102 102
0.064516 0.661290 -0.390479 102 102 102
0.080645 0.661290 -0.377471 102 102 102
0.096774 0.661290 -0.363944 102 102 102
0.112903 0.661290 -0.349896 102 102 102
0.129032 0.661290 -0.335328 102 102 102
0.145161 0.661290 -0.320239 102 102 102
0.161290 0.661290 -0.304631 102 102 102
0.177419 0.661290 -0.288502 102 102 102
0.193548 0.661290 -0.271852 102 102 102
0.209677 0.661290 -0.254683 102 102 102
0.225806 0.661290 -0.236993 102 102 102
0.241935 0.661290 -0.218783 102 102 102
0.258065 0.661290 -0.200052 102 102 102
0.274194 0.661290 -0.180801 102 102 102
0.290323 0.661290 -0.161030 102 102 102
0.306452 0.661290 -0.140739 102 102 102
0.322581 0.661290 -0.119927 102 102 102
0.338710 0.661290 -0.098595 102 102 102
0.354839 0.661290 -0.076743 102 102 102
0.370968 0.661290 -0.054370 102 102 102
0.387097 0.661290 -0.031478 102 102 102
0.403226 0.661290 -0.008065 102 102 102
0.419355 0.661290 0.015869 102 102 102
0.435484 0.661290 0.040323 102 102 102
0.451613 0.661290 0.065297 102 102 102
0.467742 0.661290 0.090791 102 102 102
0.483871 0.661290 0.116805 102 102 102
0.500000 0.661290 0.143340 102 102 102
0.516129 0.661290 0.170395 102 102 102
0.532258 0.661290 0.197971 102 102 102
0.548387 0.661290 0.226067 102 102 102
0.564516 0.661290 0.254683 102 102 102
0.580645 0.661290 0.283819 102 102 102
0.596774 0.661290 0.313476 102 102 102
0.612903 0.661290 0.343652 102 102 102
0.629032 0.661290 0.374350 102 102 102
0.645161 0.661290 0.405567 102 102 102
0.661290 0.661290 0.437305 102 102 102
0.677419 0.661290 0.469563 102 102 102
0.693548 0.661290 0.502341 102 102 102
0.709677 0.661290 0.535640 102 102 102
0.725806 0.661290 0.569459 102 102 102
0.741935 0.661290 0.603798 102 102 102
0.758065 0.661290 0.638658 102 102 102
0.774194 0.661290 0.674037 102 102 102
0.790323 0.661290 0.709938 102 102 102
0.806452 0.661290 0.746358 102 102 102
0.822581 0.661290 0.783299 102 102 102
0.838710 0.661290 0.820760 102 102 102
0.854839 0.661290 0.858741 102 102 102
0.870968 0.661290 0.897242 102 102 102
0.887097 0.661290 0.936264 102 102 102
0.903226 0.661290 0.975806 102 102 102
0.919355 0.661290 1.015869 102 102 102
0.935484 0.661290 1.056452 102 102 102
0.951613 0.661290 1.097555 102 102 102
0.967742 0.661290 1.139178 102 102 102
0.983871 0.661290 1.181322 102 102 102
1.000000 0.661290 1.223985 102 102 102
-1.000000 0.677419 -0.136316 102 102 102
-0.983871 0.677419 -0.157388 102 102 102
-0.967742 0.677419 -0.177940 102 102 102
-0.951613 0.677419 -0.197971 102 102 102
-0.935484 0.677419 -0.217482 102 102 102
-0.919355 0.677419 -0.236472 102 102 102
-0.903226 0.677419 -0.254943 102 102 102
-0.887097 0.677419 -0.272893 102 102 102
-0.870968 0.677419 -0.290323 102 102 102
-0.854839 0.677419 -0.307232 102 102 102
-0.838710 0.677419 -0.323621 102 102 102
-0.822581 0.677419 -0.339490 102 102 102
-0.806452 0.677419 -0.354839 102 102 102
-0.790323 0.677419 -0.369667 102 102 102
-0.774194 0.677419 -0.383975 102 102 102
-0.758065 0.677419 -0.397763 102 102 102
-0.741935 0.677419 -0.411030 102 102 102
-0.725806 0.677419 -0.423777 102 102 102
-0.709677 0.677419 -0.436004 102 102 102
-0.693548 0.677419 -0.447711 102 102 102
-0.677419 0.677419 -0.458897 102 102 102
-0.661290 0.677419 -0.469563 102 102 102
-0.645161 0.677419 -0.479709 102 102 102
-0.629032 0.677419 -0.489334 102 102 102
-0.612903 0.677419 -0.498439 102 102 102
-0.596774 0.677419 -0.507024 102 102 102
-0.580645 0.677419 -0.515088 102 102 102
-0.564516 0.677419 -0.522633 102 102 102
-0.548387 0.677419 -0.529657 102 102 102
-0.532258 0.677419 -0.536160 102 102 102
-0.516129 0.677419 -0.542144 102 102 102
-0.500000 0.677419 -0.547607 102 102 102
-0.483871 0.677419 -0.552549 102 102 102
-0.467742 0.677419 -0.556972 102 102 102
-0.451613 0.677419 -0.560874 102 102 102
-0.435484 0.677419 -0.564256 102 102 102
-0.419355 0.677419 -0.567118 102 102 102
-0.403226 0.677419 -0.569459 102 102 102
-0.387097 0.677419 -0.571280 102 102 102
-0.370968 0.677419 -0.572581 102 102 102
-0.354839 0.677419 -0.573361 102 102 102
-0.338710 0.677419 -0.573621 102 102 102
-0.322581 0.677419 -0.573361 102 102 102
-0.306452 0.677419 -0.572581 102 102 102
-0.290323 0.677419 -0.571280 102 102 102
-0.274194 0.677419 -0.569459 102 102 102
-0.258065 0.677419 -0.567118 102 102 102
-0.241935 0.677419 -0.564256 102 102 102
-0.225806 0.677419 -0.560874 102 102 102
-0.209677 0.677419 -0.556972 102 102 102
-0.193548 0.677419 -0.552549 102 102 102
-0.177419 0.677419 -0.547607 102 102 102
-0.161290 0.677419 -0.542144 102 102 102
-0.145161 0.677419 -0.536160 102 102 102
-0.129032 0.677419 -0.529657 102 102 102
-0.112903 0.677419 -0.522633 102 102 102
-0.096774 0.677419 -0.515088 102 102 102
-0.080645 0.677419 -0.507024 102 102 102
-0.064516 0.677419 -0.498439 102 102 102
-0.048387 0.677419 -0.489334 102 102 102
-0.032258 0.677419 -0.479709 102 102 102
-0.016129 0.677419 -0.469563 102 102 102
0.000000 0.677419 -0.458897 102 102 102
0.016129 0.677419 -0.447711 102 102 102
0.032258 0.677419 -0.436004 102 102 102
0.048387 0.677419 -0.423777 102 102 102
0.064516 0.677419 -0.411030 102 102 102
0.080645 0.677419 -0.397763 102 102 102
0.096774 0.677419 -0.383975 102 102 102
0.112903 0.677419 -0.369667 102 102 102
0.129032 0.677419 -0.354839 102 102 102
0.145161 0.677419 -0.339490 102 102 102
0.161290 0.677419 -0.323621 102 102 102
0.177419 0.677419 -0.307232 102 102 102
0.193548 0.677419 -0.290323 102 102 102
0.209677 0.677419 -0.272893 102 102 102
0.225806 0.677419 -0.254943 102 102 102
0.241935 0.677419 -0.236472 102 102 102
0.258065 0.677419 -0.217482 102 102 102
0.274194 0.677419 -0.197971 102 102 102
0.290323 0.677419 -0.177940 102 102 102
0.306452 0.677419 -0.157388 102 102 102
0.322581 0.677419 -0.136316 102 102 102
0.338710 0.677419 -0.114724 102 102 102
0.354839 0.677419 -0.092612 102 102 102
0.370968 0.677419 -0.069979 102 102 102
0.387097 0.677419 -0.046826 102 102 102
0.403226 0.677419 -0.023153 102 102 102
0.419355 0.677419 0.001041 102 102 102
0.435484 0.677419 0.025754 102 102 102
0.451613 0.677419 0.050989 102 102 102
0.467742 0.677419 0.076743 102 102 102
0.483871 0.677419 0.103018 102 102 102
0.500000 0.677419 0.129813 102 102 102
0.516129 0.677419 0.157128 102 102 102
0.532258 0.677419 0.184964 102 102 102
0.548387 0.677419 0.213319 102 102 102
0.564516 0.677419 0.242196 102 102 102
0.580645 0.677419 0.271592 102 102 102
0.596774 0.677419 0.301509 102 102 102
0.612903 0.677419 0.331946 102 102 102
0.629032 0.677419 0.362903 102 102 102
0.645161 0.677419 0.394381 102 102 102
0.661290 0.677419 0.426379 102 102 102
0.677419 0.677419 0.458897 102 102 102
0.693548 0.677419 0.491935 102 102 102
0.709677 0.677419 0.525494 102 102 102
0.725806 0.677419 0.559573 102 102 102
0.741935 0.677419 0.594173 102 102 102
0.758065 0.677419 0.629292 102 102 102
0.774194 0.677419 0.664932 102 102 102
0.790323 0.677419 0.701093 102 102 102
0.806452 0.677419 0.737773 102 102 102
0.822581 0.677419 0.774974 102 102 102
0.838710 0.677419 0.812695 102 102 102
0.854839 0.677419 0.850937 102 102 102
0.870968 0.677419 0.889698 102 102 102
0.887097 0.677419 0.928980 102 102 102
0.903226 0.677419 0.968783 102 102 102
0.919355 0.677419 1.009105 102 102 102
0.935484 0.677419 1.049948 102 102 102
0.951613 0.677419 1.091311 102 102 102
0.967742 0.677419 1.133195 102 102 102
0.983871 0.677419 1.175598 102 102 102
1.000000 0.677419 1.218522 102 102 102
-1.000000 0.693548 -0.174558 102 102 102
-0.983871 0.693548 -0.195369 102 102 102
-0.967742 0.693548 -0.215661 102 102 102
-0.951613 0.693548 -0.235432 102 102 102
-0.935484 0.693548 -0.254683 102 102 102
-0.919355 0.693548 -0.273413 102 102 102
-0.903226 0.693548 -0.291623 102 102 102
-0.887097 0.693548 -0.309313 102 102 102
-0.870968 0.693548 -0.326483 102 102 102
-0.854839 0.693548 -0.343132 102 102 102
-0.838710 0.693548 -0.359261 102 102 102
-0.822581 0.693548 -0.374870 102 102 102
-0.806452 0.693548 -0.389958 102 102 102
-0.790323 0.693548 -0.404527 102 102 102
-0.774194 0.693548 -0.418574 102 102 102
-0.758065 0.693548 -0.432102 102 102 102
-0.741935 0.693548 -0.445109 102 102 102
-0.725806 0.693548 -0.457596 102 102 102
-0.709677 0.693548 -0.469563 102 102 102
-0.693548 0.693548 -0.481009 102 102 102
-0.677419 0.693548 -0.491935 102 102 102
-0.661290 0.693548 -0.502341 102 102 102
-0.645161 0.693548 -0.512227 102 102 102
-0.629032 0.693548 -0.521592 102 102 102
-0.612903 0.693548 -0.530437 102 102 102
-0.596774 0.693548 -0.538762 102 102 102
-0.580645 0.693548 -0.546566 102 102 102
-0.564516 0.693548 -0.553850 102 102 102
-0.548387 0.693548 -0.560614 102 102 102
-0.532258 0.693548 -0.566857 102 102 102
-0.516129 0.693548 -0.572581 102 102 102
-0.500000 0.693548 -0.577784 102 102 102
-0.483871 0.693548 -0.582466 102 102 102
-0.467742 0.693548 -0.586628 102 102 102
-0.451613 0.693548 -0.590271 102 102 102
-0.435484 0.693548 -0.593392 102 102 102
-0.419355 0.693548 -0.595994 102 102 102
-0.403226 0.693548 -0.598075 102 102 102
-0.387097 0.693548 -0.599636 102 102 102
-0.370968 0.693548 -0.600676 102 102 102
-0.354839 0.693548 -0.601197 102 102 102
-0.338710 0.693548 -0.601197 102 102 102
-0.322581 0.693548 -0.600676 102 102 102
-0.306452 0.693548 -0.599636 102 102 102
-0.290323 0.693548 -0.598075 102 102 102
-0.274194 0.693548 -0.595994 102 102 102
-0.258065 0.693548 -0.593392 102 102 102
-0.241935 0.693548 -0.590271 102 102 102
-0.225806 0.693548 -0.586628 102 102 102
-0.209677 0.693548 -0.582466 102 102 102
-0.193548 0.693548 -0.577784 102 102 102
-0.177419 0.693548 -0.572581 102 102 102
-0.161290 0.693548 -0.566857 102 102 102
-0.145161 0.693548 -0.560614 102 102 102
-0.129032 0.693548 -0.553850 102 102 102
-0.112903 0.693548 -0.546566 102 102 102
-0.096774 0.693548 -0.538762 102 102 102
-0.080645 0.693548 -0.530437 102 102 102
-0.064516 0.693548 -0.521592 102 102 102
-0.048387 0.693548 -0.512227 102 102 102
-0.032258 0.693548 -0.502341 102 102 102
-0.016129 0.693548 -0.491935 102 102 102
0.000000 0.693548 -0.481009 102 102 102
0.016129 0.693548 -0.469563 102 102 102
0.032258 0.693548 -0.457596 102 102 102
0.048387 0.693548 -0.445109 102 102 102
0.064516 0.693548 -0.432102 102 102 102
0.080645 0.693548 -0.418574 102 102 102
0.096774 0.693548 -0.404527 102 102 102
0.112903 0.693548 -0.389958 102 102 102
0.129032 0.693548 -0.374870 102 102 102
0.145161 0.693548 -0.359261 102 102 102
0.161290 0.693548 -0.343132 102 102 102
0.177419 0.693548 -0.326483 102 102 102
0.193548 0.693548 -0.309313 102 102 102
0.209677 0.693548 -0.291623 102 102 102
0.225806 0.693548 -0.273413 102 102 102
0.241935 0.693548 -0.254683 102 102 102
0.258065 0.693548 -0.235432 102 102 102
0.274194 0.693548 -0.215661 102 102 102
0.290323 0.693548 -0.195369 102 102 102
0.306452 0.693548 -0.174558 102 102 102
0.322581 0.693548 -0.153226 102 102 102
0.338710 0.693548 -0.131374 102 102 102
0.354839 0.693548 -0.109001 102 102 102
0.370968 0.693548 -0.086108 102 102 102
0.387097 0.693548 -0.062695 102 102 102
0.403226 0.693548 -0.038762 102 102 102
0.419355 0.693548 -0.014308 102 102 102
0.435484 0.693548 0.010666 102 102 102
0.451613 0.693548 0.036160 102 102 102
0.467742 0.693548 0.062175 102 102 102
0.483871 0.693548 0.088710 102 102 102
0.500000 0.693548 0.115765 102 102 102
0.516129 0.693548 0.143340 102 102 102
0.532258 0.693548 0.171436 102 102 102
0.548387 0.693548 0.200052 102 102 102
0.564516 0.693548 0.229188 102 102 102
0.580645 0.693548 0.258845 102 102 102
0.596774 0.693548 0.289022 102 102 102
0.612903 0.693548 0.319719 102 102 102
0.629032 0.693548 0.350937 102 102 102
0.645161 0.693548 0.382674 102 102 102
0.661290 0.693548 0.414932 102 102 102
0.677419 0.693548 0.447711 102 102 102
0.693548 0.693548 0.481009 102 102 102
0.709677 0.693548 0.514828 102 102 102
0.725806 0.693548 0.549168 102 102 102
0.741935 0.693548 0.584027 102 102 102
0.758065 0.693548 0.619407 102 102 102
0.774194 0.693548 0.655307 102 102 102
0.790323 0.693548 0.691727 102 102 102
0.806452 0.693548 0.728668 102 102 102
0.822581 0.693548 0.766129 102 102 102
0.838710 0.693548 0.804110 102 102 102
0.854839 0.693548 0.842612 102 102 102
0.870968 0.693548 0.881634 102 102 102
0.887097 0.693548 0.921176 102 102 102
0.903226 0.693548 0.961238 102 102 102
0.919355 0.693548 1.001821 102 102 102
0.935484 0.693548 1.042924 102 102 102
0.951613 0.693548 1.084547 102 102 102
0.967742 0.693548 1.126691 102 102 102
0.983871 0.693548 1.169355 102 102 102
1.000000 0.693548 1.212539 102 102 102
-1.000000 0.709677 -0.213319 102 102 102
-0.983871 0.709677 -0.233871 102 102 102
-0.967742 0.709677 -0.253902 102 102 102
-0.951613 0.709677 -0.273413 102 102 102
-0.935484 0.709677 -0.292404 102 102 102
-0.919355 0.709677 -0.310874 102 102 102
-0.903226 0.709677 -0.328824 102 102 102
-0.887097 0.709677 -0.346254 102 102 102
-0.870968 0.709677 -0.363163 102 102 102
-0.854839 0.709677 -0.379553 102 102 102
-0.838710 0.709677 -0.395421 102 102 102
-0.822581 0.709677 -0.410770 102 102 102
-0.806452 0.709677 -0.425598 102 102 102
-0.790323 0.709677 -0.439906 102 102 102
-0.774194 0.709677 -0.453694 102 102 102
-0.758065 0.709677 -0.466962 102 102 102
-0.741935 0.709677 -0.479709 102 102 102
-0.725806 0.709677 -0.491935 102 102 102
-0.709677 0.709677 -0.503642 102 102 102
-0.693548 0.709677 -0.514828 102 102 102
-0.677419 0.709677 -0.525494 102 102 102
-0.661290 0.709677 -0.535640 102 102 102
-0.645161 0.709677 -0.545265 102 102 102
-0.629032 0.709677 -0.554370 102 102 102
-0.612903 0.709677 -0.562955 102 102 102
-0.596774 0.709677 -0.571020 102 102 102
-0.580645 0.709677 -0.578564 102 102 102
-0.564516 0.709677 -0.585588 102 102 102
-0.548387 0.709677 -0.592092 102 102 102
-0.532258 0.709677 -0.598075 102 102 102
-0.516129 0.709677 -0.603538 102 102 102
-0.500000 0.709677 -0.608481 102 102 102
-0.483871 0.709677 -0.612903 102 102 102
-0.467742 0.709677 -0.616805 102 102 102
-0.451613 0.709677 -0.620187 102 102 102
-0.435484 0.709677 -0.623049 102 102 102
-0.419355 0.709677 -0.625390 102 102 102
-0.403226 0.709677 -0.627211 102 102 102
-0.387097 0.709677 -0.628512 102 102 102
-0.370968 0.709677 -0.629292 102 102 102
-0.354839 0.709677 -0.629553 102 102 102
-0.338710 0.709677 -0.629292 102 102 102
-0.322581 0.709677 -0.628512 102 102 102
-0.306452 0.709677 -0.627211 102 102 102
-0.290323 0.709677 -0.625390 102 102 102
-0.274194 0.709677 -0.623049 102 102 102
-0.258065 0.709677 -0.620187 102 102 102
-0.241935 0.709677 -0.616805 102 102 102
-0.225806 0.709677 -0.612903 102 102 102
-0.209677 0.709677 -0.608481 102 102 102
-0.193548 0.709677 -0.603538 102 102 102
-0.177419 0.709677 -0.598075 102 102 102
-0.161290 0.709677 -0.592092 102 102 102
-0.145161 0.709677 -0.585588 102 102 102
-0.129032 0.709677 -0.578564 102 102 102
-0.112903 0.709677 -0.571020 102 102 102
-0.096774 0.709677 -0.562955 102 102 102
-0.080645 0.709677 -0.554370 102 102 102
-0.064516 0.709677 -0.545265 102 102 102
-0.048387 0.709677 -0.535640 102 102 102
-0.032258 0.709677 -0.525494 102 102 102
-0.016129 0.709677 -0.514828 102 102 102
